# .PCD v0.7 - Point Cloud Data file format
VERSION 0.7
FIELDS x y z rgba
SIZE 4 4 4 4
TYPE F F F U
COUNT 1 1 1 1
WIDTH 475
HEIGHT 1
VIEWPOINT 0 0 0 1 0 0 0
POINTS 475
DATA ascii
0.0066636056 0.00049301982 0.0036715269 6903342
0.0079542771 0.0010767877 0.0034592152 6969879
0.0034610704 0.00053837895 0.003655076 6566954
0.0047517419 0.0011221468 0.0034427047 6764089
0.006026879 0.00085031986 0.0014134049 7031112
0.0073141158 0.001432538 0.0012016296 7231012
0.0086013526 0.0020147562 0.00098985434 6970369
-0.0010321364 0 0.0038508773 6106369
0.0002585277 0.00058376789 0.0036385655 6238210
0.0015492067 0.0011675358 0.0034261942 6369292
0.0028398708 0.0017513037 0.0032138228 6500631
0.0041305497 0.0023350716 0.0030014515 6698533
0.0054073408 0.0020600259 0.00097334385 7093299
0.0066945776 0.0026422441 0.00076156855 7557658
0.0079818144 0.0032244623 0.00054979324 7166209
-0.004234679 4.5388937e-05 0.0038343668 5646081
-0.0029440075 0.00062915683 0.0036220551 5777409
-0.001653336 0.0012129247 0.0034096837 5909505
-0.00036266446 0.0017966926 0.0031973124 6040833
0.00092800707 0.0023804605 0.002984941 6237698
0.0022186786 0.0029642284 0.0027726293 6434820
0.0035093501 0.0035479963 0.0025602579 6633233
0.0047877952 0.0032697022 0.00053334236 6962206
0.0060750321 0.0038519204 0.00032150745 7294479
0.0073622689 0.0044341385 0.00010973215 7034881
0.0086495057 0.0050163567 -0.00010204315 6840577
0.0099367574 0.0055985749 -0.00031387806 6710018
-0.0074473694 0.00051638484 0.0047271252 5056257
-0.0061465427 0.00067451596 0.0036055446 5253377
-0.0048558712 0.0012582839 0.0033931732 5449473
-0.0035651997 0.0018420517 0.0031808019 5580033
-0.0022745281 0.0024258196 0.0029684305 5777153
-0.00098385662 0.0030095875 0.0027561188 5908993
0.00030682236 0.0035933554 0.0025437474 6106115
0.0015974864 0.0041771233 0.0023313761 6369285
0.002888158 0.0047608912 0.0021190047 6632461
0.0041788369 0.0053446591 0.001906693 6831125
0.0054554865 0.0050615966 -0.00011849403 7029259
0.0067427307 0.0056438148 -0.00033032894 6969089
0.0080508441 0.0070959628 0.0012695789 6905345
0.0093415231 0.0076797307 0.0010572672 6775554
-0.011978816 0.00082719326 0.0067423582 6046721
-0.010654166 0.00056183338 0.0047106147 5187330
-0.0093617812 0.0011463761 0.0044979453 4925187
-0.0080693923 0.0017309189 0.0042853355 4728834
-0.0067770034 0.0023154616 0.0040726662 4990977
-0.0054770634 0.0024712086 0.0029519796 5319681
-0.0041863993 0.0030549765 0.0027396083 5514241
-0.0028957203 0.0036387444 0.0025272369 5776897
-0.0016050562 0.0042225122 0.0023148656 5843201
-0.00031437725 0.0048062801 0.0021024942 5974531
0.00097628683 0.005390048 0.0018901825 6237446
0.0022669658 0.0059738159 0.0016778111 6500617
0.0035576373 0.0065575838 0.0014654398 6632460
0.0048483089 0.0071413517 0.0012530684 6764295
0.0061389804 0.0077251196 0.0010407567 6768642
0.0074296519 0.0083088875 0.00082838535 6773506
0.0087203234 0.0088926554 0.000616014 6708226
-0.011276186 0.0017763674 0.0042687654 5848834
-0.0099837966 0.0023609102 0.0040561557 5121540
-0.0086914077 0.0029454529 0.0038434863 4400642
-0.0073990226 0.0035299957 0.0036308765 4794113
-0.0060982555 0.0036841333 0.0025107265 5252353
-0.004807584 0.0042679012 0.0022983551 5514241
-0.0035169125 0.0048516691 0.0020860434 5776897
-0.0022262409 0.005435437 0.001873672 5777665
-0.00093556941 0.0060192049 0.0016613007 5843458
0.00035469234 0.0057343543 -0.00036323071 6105859
0.0016457736 0.0071867406 0.001236558 6434054
0.0029291734 0.0068987608 -0.00078684092 6501384
0.0042271167 0.0083542764 0.00081187487 6567687
0.0055177882 0.0089380443 0.00059950352 6568453
0.0068172514 0.0099599659 0.0012918115 6637829
0.0081411526 0.011861503 0.0037925243 6641669
0.0094386861 0.01244837 0.0035790205 6707971
-0.010605816 0.0035754144 0.0036143661 5520645
-0.0093386993 0.0050210059 0.0052167773 4989955
-0.0080210418 0.0047444999 0.0031890869 5121793
-0.0067286491 0.0053290427 0.0029764175 5187329
-0.0054287836 0.0054807961 0.0018571615 5383681
-0.0041438714 0.006498158 0.0025511384 5580289
-0.0028474405 0.0066483319 0.0014324188 5645569
-0.0015567616 0.0072320998 0.0012201071 5776641
-0.00026609749 0.0078158677 0.0010077357 5973761
0.0010245815 0.0083996356 0.00079536438 6170883
0.002315253 0.0089834034 0.00058299303 6236933
0.0036059245 0.0095671713 0.00037062168 6303239
0.0048965961 0.010150947 0.00015830994 6370313
0.0061952323 0.011174507 0.00085002184 6437385
0.0074876249 0.011759043 0.00063741207 6573833
0.00878001 0.012343585 0.0004247427 6707461
-0.0099623725 0.0062387288 0.0047737956 5651714
-0.0086665526 0.006824851 0.0045605898 5383937
-0.007350672 0.0065436065 0.0025346279 5187073
-0.0060582832 0.0071281493 0.0023219585 5252609
-0.0047658905 0.007712692 0.0021093488 5383688
-0.0034686252 0.0078612268 0.00099122524 5515023
-0.0021779537 0.0084450245 0.00077885389 5710602
-0.00088728219 0.0090287626 0.00056648254 5775878
0.00040338933 0.0096125305 0.0003541708 5907717
0.0016940609 0.010196321 0.00014179945 5974021
0.0029773265 0.0099003613 -0.0018787384 6105863
0.0042645708 0.010482587 -0.0020905137 6172425
0.0055660754 0.011947632 -0.00049525499 6239762
0.0068655983 0.012973577 0.00019556284 6440476
0.0081579909 0.013558127 -1.7046928e-05 6706457
-0.010586038 0.0074565113 0.0043308139 5922049
-0.0092902184 0.0080426037 0.0041176081 5650689
-0.0079943985 0.0086286962 0.0039044023 5383169
-0.0066803023 0.0083426535 0.0018801689 5252097
-0.0053879172 0.0089271963 0.0016674995 5186575
-0.004095532 0.009511739 0.0014548898 5251869
-0.0027991459 0.0096579492 0.00033766031 5382676
-0.0015084818 0.010241717 0.00012528896 5513739
-0.00021780282 0.010825485 -8.7082386e-05 5710344
0.0010728687 0.011409253 -0.00029945374 5841925
0.0023577884 0.01111003 -0.0023187399 5973767
0.0036542118 0.012576781 -0.00072413683 6106121
0.0049448833 0.013160557 -0.00093650818 6239004
0.0062355548 0.013744324 -0.0011488795 6372399
0.0075262263 0.014328092 -0.0013612509 6509101
-0.0099272877 0.0096964538 0.0045800805 5917698
-0.0086180717 0.0098464489 0.0034614205 5585153
-0.0073023215 0.0095571876 0.0014383793 5315073
-0.0060099289 0.01014173 0.0012257099 5054728
-0.0047175437 0.010726273 0.0010131001 5054991
-0.003420338 0.010870844 -0.00010359287 5053964
-0.002129674 0.011454612 -0.00031596422 5315337
-0.00083900243 0.012038387 -0.00052827597 5577990
0.00045167655 0.01262214 -0.00074064732 5709571
0.0017423406 0.013205916 -0.00095301867 5907460
0.0030330196 0.013789684 -0.00116539 6040069
0.0043236837 0.014373451 -0.0013777018 6237713
0.0056143627 0.014957227 -0.0015900731 6304286
0.0069050416 0.015540987 -0.0018024445 6377500
0.0081957057 0.016124755 -0.0020148158 6444314
-0.010551784 0.010915846 0.0041365027 6313987
-0.0092417449 0.011064202 0.0030184388 6180610
-0.007945925 0.011650294 0.002805233 5383681
-0.0066500977 0.012236387 0.0025920272 4660737
-0.0053395629 0.011940807 0.00057125092 4660226
-0.0040415302 0.012083746 -0.00054478645 4725252
-0.0027508661 0.012667507 -0.0007571578 4987399
-0.0014601871 0.013251275 -0.00096952915 5315076
-0.00016951561 0.013835043 -0.0011819005 5511682
0.0011211559 0.014418811 -0.0013942122 5773825
0.0024118274 0.015002571 -0.0016065836 5907713
0.003702499 0.015586346 -0.0018189549 6105351
0.0049931705 0.016170114 -0.0020313263 6237966
0.0062676594 0.015858263 -0.0040460229 6376972
0.0075549036 0.016440481 -0.0042577982 6509322
-0.0098654181 0.012281954 0.0025754571 6772229
-0.0085695982 0.012868047 0.0023622513 5518081
-0.0072737709 0.013454147 0.0021490455 4269571
-0.0059615821 0.013155311 0.00012946129 4329733
-0.0046691969 0.013739854 -8.3148479e-05 4396292
-0.0033720583 0.013880432 -0.001198411 4724484
-0.0020813867 0.014464207 -0.0014107227 5051907
-0.00079070777 0.015047967 -0.0016230941 5379330
0.00049916655 0.014739096 -0.0036389232 5707521
0.0017864034 0.015321314 -0.0038506985 5841153
0.0030736402 0.015903533 -0.0040624738 5974021
0.0043608844 0.016485751 -0.0042742491 6171913
0.0056336001 0.016169071 -0.006287396 6373129
0.0069174021 0.016749747 -0.0064985752 6574601
0.0082012042 0.017330401 -0.0067098141 6771205
-0.0091932639 0.014085807 0.0019192696 5981953
-0.0078759864 0.013785303 -9.9718571e-05 4926981
-0.0065836012 0.014369845 -0.00031232834 4659465
-0.0052912086 0.014954381 -0.00052499771 4461573
-0.0039932504 0.015093356 -0.0016396046 4658433
-0.0027025789 0.015677124 -0.0018519759 4853249
-0.0014076158 0.015366584 -0.0038671494 5182722
-0.00012037903 0.015948802 -0.0040789247 5575937
0.0011642799 0.015633553 -0.0060925484 5709569
0.0024450868 0.015764713 -0.0072043538 5908226
0.0037271753 0.016344607 -0.0074152946 6105348
0.0050092712 0.016924471 -0.0076262355 6299398
0.0062913522 0.017504364 -0.0078371763 6503433
0.0075734481 0.01808425 -0.0080481172 6769669
-0.0084980093 0.014999837 -0.0005415082 5653512
-0.0072056204 0.015584387 -0.00075411797 5054991
-0.0059051141 0.015722483 -0.0018684864 4528136
-0.0046144426 0.016306251 -0.0020807981 4592641
-0.0033143982 0.015994042 -0.0040954351 4723713
-0.0020212159 0.015678674 -0.0061089993 5051649
-0.00073740631 0.016259342 -0.0063202381 5445377
0.00054639578 0.016840011 -0.0065314174 5643777
0.0018302053 0.017420687 -0.0067426562 5907457
0.0031101182 0.017549455 -0.0078536272 6104578
0.0043922067 0.018129326 -0.008064568 6301188
0.0056742951 0.018709213 -0.0082755089 6497798
0.0069563836 0.019289106 -0.0084864497 6766339
-0.0065263063 0.016935401 -0.00230968 4332555
-0.0052356347 0.017519176 -0.0025220513 4395521
-0.0039339364 0.017203711 -0.0045354366 4462593
-0.0026391074 0.016885132 -0.0065478683 4855041
-0.0013552979 0.017465807 -0.0067591071 5315073
-7.1488321e-05 0.018046461 -0.0069702864 5577729
0.0012123212 0.018627137 -0.0071815252 5841409
0.0024930537 0.018754303 -0.0082919002 5973249
0.0037751421 0.019334197 -0.008502841 6170882
0.0050572306 0.019914061 -0.0087137818 6432004
0.0063393191 0.020493954 -0.0089247227 6697474
-0.0058568344 0.018732101 -0.0029632449 4198658
-0.0045534745 0.018413424 -0.0049754977 4264705
-0.003256999 0.018091597 -0.0069867373 4724225
-0.0019702837 0.018219501 -0.0080973506 5183745
-0.00068818778 0.018799365 -0.0083082914 5446401
0.00059390068 0.019379251 -0.0085192323 5774337
0.0018759891 0.019959152 -0.0087301731 5905921
0.0031501576 0.019627273 -0.010737598 6103298
0.0044401661 0.021118917 -0.0091520548 6366467
0.00570748 0.020783931 -0.011158347 6630660
0.0069861338 0.021362275 -0.011368752 6769668
-0.0038694367 0.018844455 -0.0083246827 4330753
-0.0025873482 0.019424357 -0.0085356236 4856065
-0.0013052598 0.020004213 -0.0087465644 5183745
-2.3163855e-05 0.020584106 -0.0089575052 5509889
0.0012589321 0.021164007 -0.0091684461 5772801
0.0025347471 0.020828903 -0.011174738 6035714
0.003823109 0.022323757 -0.0095903277 6234627
0.0050920621 0.021985561 -0.011595488 6433029
0.0063707158 0.022563905 -0.011805892 6567432
-0.0057685897 0.01946941 -0.0085520148 3345671
-0.0044864938 0.020049304 -0.0087629557 3935237
-0.0032044128 0.020629197 -0.0089738965 4526597
-0.0019223168 0.021209061 -0.0091848373 4855557
-0.00064022094 0.021788955 -0.0093957782 5247240
0.00064186752 0.022368841 -0.009606719 5640971
0.0019193366 0.022030532 -0.011611819 6036238
0.0032060444 0.023528606 -0.01002866 6168337
0.0044766515 0.02318719 -0.012032628 6299668
0.0057553127 0.023765534 -0.012242973 6365464
-0.0063856542 0.020674251 -0.0089902878 4196877
-0.0051035658 0.021254152 -0.0092012286 4197385
-0.0038214698 0.021834046 -0.0094121695 4197897
-0.0025393814 0.022413917 -0.0096231699 4656905
-0.0012572929 0.022993803 -0.0098341107 5115919
2.4802983e-05 0.023573697 -0.010045052 5575702
0.0013039336 0.023232132 -0.01204896 5971482
0.0025889799 0.024733454 -0.010466933 6168095
-0.0057206228 0.022459 -0.0096395612 4523529
-0.0044385418 0.023038894 -0.009850502 3934472
-0.0031564459 0.02361875 -0.010061443 4459527
-0.00187435 0.024198651 -0.010272384 5050383
-0.00059226155 0.024778545 -0.010483325 5510424
-0.006320186 0.022743732 -0.011871278 4659465
-0.0050415322 0.023322076 -0.012081683 3605255
-0.003762871 0.023900397 -0.012292027 4394501
-0.0024842098 0.024478734 -0.012502432 5184271
-0.006935589 0.023945361 -0.012308419 4860933
-0.0056569353 0.024523675 -0.012518764 3279364
-0.0088296607 0.024568647 -0.012535095 6512917
-0.0062361434 9.9830329e-05 0.0035667419 8014869
-0.0073644482 0.00065419078 0.0035624504 8146208
-0.0045647845 0.00065265596 0.0038152933 7556611
-0.0056930929 0.0012070164 0.0038110018 7949826
-0.0068214014 0.0017613769 0.0038066506 8080898
-0.0079497024 0.0023157373 0.0038022995 8214017
-0.0019712895 0.00046730787 0.0060560107 6505237
-0.0030961707 0.0010199919 0.0060517192 7032332
-0.0040217414 0.001759842 0.0040595531 7425539
-0.0051500499 0.0023142025 0.004055202 7884296
-0.0061821043 0.0029638261 0.003057003 8015628
-0.0073121227 0.0035190284 0.0030526519 8147463
0.00081988424 0.0004657805 0.0063081384 5582101
-0.00030499697 0.0010184571 0.0063037872 5911322
-0.0012220815 0.0017583072 0.004312396 6503200
-0.00235039 0.0023126677 0.0043081045 7032594
-0.003478691 0.0028670281 0.0043037534 7491076
-0.0045082197 0.0035174936 0.003305912 7949581
-0.0056382343 0.004072696 0.0033015609 8015127
-0.006768249 0.0046278909 0.0032972693 8080653
0.0036110654 0.00046425313 0.0065602064 4664580
0.0024861768 0.0010169297 0.0065559149 5057800
0.0013612881 0.0015696138 0.0065516233 5451021
0.00044927001 0.0023111328 0.0045609474 5910546
-0.00067903847 0.0028654933 0.0045566559 6501143
-0.0018073395 0.0034198537 0.0045523047 7094542
-0.002935648 0.0039742142 0.0045480132 7556870
-0.0039643571 0.0046263486 0.0035505295 8080651
-0.0050943717 0.005181551 0.0035461783 8080657
-0.0062243864 0.0057367533 0.0035418272 8080653
-0.0073544011 0.0062919557 0.0035375357 7556361
0.0064022318 0.00046271831 0.0068123341 4201996
0.0052773505 0.0010153949 0.0068080425 3612678
0.0041524619 0.001568079 0.006803751 4271361
0.0032489374 0.002309598 0.0048138499 4925955
0.002120629 0.0028639585 0.0048094988 5384966
0.00099232048 0.0034183264 0.0048052073 5843466
-0.000135988 0.0039726794 0.0048008561 6434319
-0.0012642965 0.0045270398 0.0047965646 7025419
-0.0023925975 0.0050814003 0.0047922134 7556872
-0.0034204796 0.0057352185 0.0037950873 8080138
-0.0046492144 0.0061901212 0.0047835708 8146188
-0.0056805089 0.0068456233 0.0037864447 8277005
-0.0068105236 0.0074008182 0.0037820935 7621903
0.0080685243 0.0010138676 0.0070601702 5391116
0.0069436356 0.0015665516 0.007055819 4203278
0.0058187544 0.0021192282 0.0070515275 3024135
0.0049202815 0.0028624237 0.0050624013 3878401
0.0037919804 0.0034167841 0.0050580502 4794887
0.002663672 0.0039711446 0.0050537586 5319949
0.0015353635 0.0045255125 0.0050494075 5843218
0.00040706247 0.0050798655 0.0050451159 6367256
-0.000721246 0.0056342259 0.0050407648 6960930
-0.0018495545 0.0061885864 0.0050364733 7491372
-0.0028766096 0.006844081 0.0040397048 8080672
-0.0040066242 0.0073992833 0.0040353537 8277269
-0.0051366463 0.0079544783 0.0040310621 8473874
-0.006266661 0.0085096806 0.004026711 7687438
0.0077199414 0.0028608888 0.0053153038 4795665
0.0065916404 0.0034152493 0.0053109527 4008457
0.0054633319 0.0039696097 0.0053066015 4336129
0.0043350235 0.0045239627 0.00530231 4663818
0.0033173338 0.0051769465 0.0043059587 5188372
0.0021873191 0.0057321489 0.0043016076 5711131
0.0011645034 0.0063876361 0.0033051968 6171426
3.2782555e-05 0.0069436803 0.0033008456 6568761
-0.0012027249 0.0073977411 0.0042886138 7294032
-0.0022306666 0.0080557615 0.0032922029 8080695
-0.0034627542 0.0085081458 0.0042799711 8276767
-0.0044941232 0.0091678426 0.0032835007 8538646
-0.0053350329 0.010039881 0.0003029108 7949326
-0.0064718872 0.010598436 0.00029855967 7361031
0.0072512552 0.0046202093 0.00456357 4992526
0.0061212406 0.0051754043 0.0045592189 4795396
0.0049912259 0.0057306066 0.0045548677 4598279
0.0038612038 0.0062858015 0.0045505762 5122315
0.0027311891 0.0068410039 0.0045462251 5647120
0.0017092004 0.0074981824 0.0035501719 5910037
0.00047115982 0.0079514086 0.0045375824 6239267
-0.00065885484 0.008506611 0.0045332313 7162161
-0.001685977 0.0091663003 0.003537178 8079394
-0.0028176978 0.0097223446 0.0035328269 8345619
-0.0038499609 0.010384552 0.0025367737 8604689
-0.0047878698 0.011155456 0.00054895878 8145935
-0.005924724 0.011714011 0.00054460764 7753480
-0.0070615783 0.012272567 0.0005402565 7493121
0.0080299005 0.005927965 0.0028255582 5190164
0.0067807958 0.0063845664 0.0038124919 4597511
0.0056490675 0.0069406033 0.0038081408 4005637
0.0045173392 0.0074966401 0.0038037896 4794115
0.0032750592 0.0079498738 0.0047908425 5582085
0.00225389 0.0086087212 0.0037951469 5844232
0.0010150298 0.0090602711 0.0047821403 6172173
-9.5590949e-06 0.0097208023 0.0037864447 6963218
-0.0010375753 0.010383017 0.0027908087 7684876
-0.0022730082 0.010832883 0.003777802 8016647
-0.0033044443 0.011496767 0.0027821064 8343308
-0.004240714 0.012271024 0.00079506636 8015377
-0.0053775609 0.012829587 0.00079071522 7752969
-0.0065144151 0.013388142 0.00078636408 7492353
0.0074419901 0.0075970665 0.0030665398 4399626
0.0063085556 0.0081539452 0.0030622482 3482374
0.0051751211 0.008710824 0.0030578971 4465922
0.0039303079 0.0091632232 0.0040444732 5514755
0.0029082447 0.0098245889 0.0030491948 5842693
0.0016668588 0.010275304 0.0040357709 6172941
0.00064137578 0.010938346 0.0030404925 6764565
-0.00049205869 0.011495225 0.0030361414 7357970
-0.0016254932 0.012052104 0.0030317903 7687696
-0.0025566965 0.012828037 0.0010454655 8080923
-0.0036935508 0.013386592 0.0010411143 7884582
-0.0047327057 0.014056355 4.5835972e-05 7753495
-0.0058712736 0.014615767 4.1425228e-05 7491593
0.007085301 0.0094751269 0.0013264418 4269063
0.0057206303 0.0098230466 0.0033032298 4793345
0.0045871958 0.010379925 0.0032988787 5383426
0.0034537613 0.010936804 0.0032945275 5713155
0.0023203269 0.011493683 0.0032901764 6042894
0.0011868924 0.012050577 0.0032858253 6502169
0.00026417524 0.012826487 0.0013002753 6965529
-0.0010799766 0.013164327 0.003277123 7293209
-0.0020095333 0.013943613 0.001291573 7689258
-0.003046155 0.014614217 0.00029659271 7686972
-0.0040861964 0.015286505 -0.00069838762 7620646
-0.0052264705 0.015846744 -0.00070279837 7490321
-0.0063667446 0.016406983 -0.00070714951 7361033
0.0077488944 0.010696851 0.00058233738 5055496
0.0064956024 0.011149265 0.0015681386 5120001
0.0053587481 0.011707827 0.0015637875 5253378
0.0039992779 0.012049027 0.0035398602 5583619
0.003085047 0.012824945 0.0015550852 5911312
0.001732409 0.013162784 0.003531158 6240030
0.00081133842 0.013942063 0.0015463829 6569249
-0.00053445995 0.014276557 0.0035224557 6964261
-0.0014623702 0.015059181 0.001537621 7357744
-0.0025992244 0.015617743 0.0015332699 7423803
-0.0035373867 0.016405433 -0.00045156479 7554857
-0.0046776608 0.016965672 -0.00045597553 7489303
-0.0058179349 0.017525911 -0.00046032667 7426060
0.0059059113 0.012823395 0.001809895 5123586
0.004769057 0.013381951 0.0018055439 5320707
0.0036322027 0.013940513 0.0018011332 5583379
0.0024953485 0.014499076 0.001796782 5910051
0.0013584942 0.015057631 0.0017924309 6236970
0.00022164732 0.015616193 0.0017880797 6631729
-0.00091520697 0.016174756 0.0017837286 7026486
-0.0020520613 0.016733311 0.0017793775 7291195
-0.0029885843 0.017524362 -0.00020474195 7488556
-0.0041288584 0.018084601 -0.0002091527 7555614
-0.0052691326 0.018644847 -0.00021350384 7556623
0.0064530745 0.013938971 0.002055943 4992257
0.0053162202 0.014497533 0.0020515919 5123842
0.0041793659 0.015056081 0.0020472407 5254671
0.0030425116 0.015614651 0.0020428896 5582108
0.0019056574 0.016173214 0.0020385385 5909533
0.00076880306 0.016731776 0.0020341873 6303774
-0.00036805123 0.017290331 0.0020298362 6764581
-0.0015049055 0.017848894 0.0020254254 7093035
-0.0024397746 0.018643297 4.2080879e-05 7489072
-0.0033814907 0.019441031 -0.0019413829 7621941
-0.0045251846 0.020002946 -0.001945734 7753249
0.005863376 0.015613116 0.0022976995 4664065
0.0047265291 0.016171664 0.0022932887 4860683
0.0035896748 0.016730227 0.0022889376 5254166
0.0024528205 0.017288797 0.0022845864 5582097
0.0013159662 0.017847344 0.0022802353 6042124
0.00017911196 0.018405907 0.0022758842 6502932
-0.00085422397 0.019083217 0.0012823939 6897436
-0.0018909723 0.019762211 0.00028890371 7358516
-0.0030312464 0.020322457 0.00028449297 7685709
-0.0039747283 0.021125227 -0.0016981959 7947571
-0.0051184222 0.021687157 -0.0017025471 7556121
0.0065251365 0.016844064 0.0015550256 4203265
0.0053865761 0.017403461 0.0015506744 4532486
0.0042480156 0.017962851 0.0015463233 4926219
0.0029999837 0.018404357 0.002530694 5320201
0.0018631294 0.018962927 0.0025263429 5780742
0.00083232671 0.019641064 0.0015332103 6240013
-0.00020188838 0.020320907 0.00054007769 6767636
-0.001136899 0.021123677 -0.0014418364 7291687
-0.0022805855 0.021685593 -0.0014462471 7750459
-0.0033250675 0.022370465 -0.0024393797 8208935
-0.0044704676 0.022933222 -0.0024437904 7749907
0.0071885511 0.018078394 0.00081312656 4334593
0.0060482845 0.018638633 0.00080871582 4073217
0.0049080104 0.019198872 0.00080436468 4664321
0.0036574379 0.019639514 0.0017884374 5254913
0.0025188699 0.020198911 0.0017840266 5714689
0.001487188 0.020879596 0.00079125166 6108166
0.00034692138 0.021439835 0.00078690052 6633228
-0.00079335272 0.022000074 0.00078248978 7158555
-0.0017301366 0.022807881 -0.001198709 7551018
-0.002873823 0.023369804 -0.0012030602 7943708
-0.0039191917 0.024057187 -0.0021958351 7618062
-0.0050645918 0.024619944 -0.0022002459 7292169
0.0079698488 0.019434802 -0.00091606379 4527361
0.0068261623 0.019996725 -0.00092041492 3614977
0.0056824684 0.02055864 -0.00092482567 4402433
0.004316546 0.020878047 0.0010468364 5255169
0.0031762719 0.021438286 0.0010424256 5648641
0.0022513941 0.022244401 -0.00093799829 6041350
0.0011077002 0.022806324 -0.00094234943 6499852
-3.5993755e-05 0.023368247 -0.00094676018 7026719
-0.0010771155 0.024055637 -0.0019391179 7353650
-0.0022225156 0.024618387 -0.0019435287 7682080
0.0085203052 0.020557091 -0.0006685257 4928001
0.0074919686 0.021240272 -0.0016604662 4270849
0.0062329248 0.021680921 -0.00067728758 4663809
0.0050892308 0.022242852 -0.00068163872 5124609
0.0039455369 0.022804767 -0.00068604946 5517569
0.002801843 0.023366697 -0.0006904006 5910534
0.001764968 0.024054065 -0.0016824603 6370060
0.00061956048 0.024616838 -0.0016868114 6829603
0.0081594288 0.022487171 -0.0023998022 4991233
0.0068978444 0.022926994 -0.0014169216 4990721
0.0057524443 0.023489751 -0.0014213324 4992769
0.0046070442 0.024052516 -0.0014257431 5386497
0.0034616441 0.024615273 -0.0014300942 5844995
0.009062551 0.023986667 -0.0051121712 5317121
0.007564418 0.024176411 -0.0021559 5121537
0.0064173117 0.02474001 -0.0021602511 4926465
