# .PCD v0.7 - Point Cloud Data file format
VERSION 0.7
FIELDS x y z rgba
SIZE 4 4 4 4
TYPE F F F U
COUNT 1 1 1 1
WIDTH 539
HEIGHT 1
VIEWPOINT 0 0 0 1 0 0 0
POINTS 539
DATA ascii
0.018446162 0.00047206879 0.0033387542 5843203
0.019733399 0.001054287 0.0031269789 5580034
0.0075768605 2.5629997e-05 0.0035011768 6905865
0.0056700781 0.00065308809 0.0032729506 6770439
0.0069683939 0.002025336 0.004901886 6905348
0.0082590729 0.0026091039 0.0046895742 6774785
0.0024760664 0.00069835782 0.0032564402 7028482
0.0037607402 0.00049039721 0.001203835 6506001
0.00505054 0.0018627644 0.0028328896 6702880
0.0063377768 0.0024449825 0.0026210546 6901526
0.007625021 0.0030272007 0.0024092793 6772493
0.0089122579 0.0036094189 0.002197504 6709255
0.00057523698 0.00053551793 0.0011873841 7422466
0.0018590465 0.0011161864 0.00097614527 7159556
0.0031437576 0.0024902523 0.0026046038 6898719
0.0044309944 0.0030724704 0.0023928285 6899002
0.0057104677 0.0028581917 0.00034248829 6965033
0.0069942698 0.0034388304 0.00013124943 6901529
0.0082927197 0.0048191249 0.001757443 6774285
-0.0038940758 0 0.0013822317 7026695
-0.0026102662 0.00058066845 0.0011709929 7159060
-0.0013264567 0.0011613369 0.00095975399 7159586
-4.2654574e-05 0.0017420053 0.00074851513 7225110
0.001241155 0.002322644 0.00053727627 7225098
0.0025249645 0.0029033124 0.00032603741 7290906
0.0038087666 0.0034839809 0.00011485815 7160106
0.0050987005 0.0048643649 0.0017409921 7095326
0.0063859373 0.005446583 0.0015292168 6965010
0.0076731741 0.0060288012 0.0013173819 6903306
-0.0057957657 0.00062578917 0.001154542 6831624
-0.0045119599 0.0012064576 0.00094330311 7026701
-0.0032281503 0.0017871261 0.00073212385 7158824
-0.0019443482 0.0023677945 0.00052088499 7224899
-0.00066053867 0.002948463 0.00030964613 7290922
0.00062327087 0.0035291016 9.8407269e-05 7290641
0.001907073 0.0041097701 -0.00011283159 7225109
0.0031908825 0.0046904385 -0.00032401085 7290906
0.0044791549 0.0060740709 0.001300931 7291155
0.0057663918 0.0066562891 0.0010891557 7096076
0.007053636 0.0072385073 0.00087738037 6901511
-0.0089812689 0.00067093968 0.0011381507 6699021
-0.007697463 0.0012516081 0.00092691183 6764548
-0.0064136572 0.0018322468 0.00071567297 6830086
-0.0051510632 0.00320822 0.0023434162 7026697
-0.0038460419 0.0029935837 0.00029325485 7224086
-0.0025622323 0.0035742521 8.2015991e-05 7290148
-0.0012784302 0.0041549206 -0.00012922287 7420951
5.3793192e-06 0.004735589 -0.00034046173 7289867
0.0012891889 0.0053162575 -0.00055170059 7224848
0.002572991 0.0058968961 -0.00076293945 7357461
0.0038568005 0.0064775646 -0.00097411871 7554321
0.0051468536 0.0078659654 0.00064909458 7227149
0.0064340979 0.0084481835 0.00043731928 6966023
-0.010882962 0.0012967288 0.00091052055 6434830
-0.0095991567 0.0018773973 0.00069928169 6371337
-0.0083153509 0.0024580657 0.00048804283 6502660
-0.007031545 0.0030387044 0.00027680397 6633988
-0.0057477355 0.0036193728 6.5565109e-05 6830597
-0.004463926 0.0042000413 -0.00014567375 7027205
-0.0031801239 0.0047807097 -0.00035685301 7159046
-0.0018963143 0.0053613782 -0.00056809187 7290373
-0.00061251223 0.0059420466 -0.00077933073 7290373
0.00067129731 0.0065227151 -0.00099056959 7290379
0.0019551069 0.0071033537 -0.0012018085 7488273
0.0032389089 0.0076840222 -0.0014129877 7752207
0.0045273155 0.0090756416 0.00020903349 7357198
0.0058145523 0.0096578598 -2.7418137e-06 7027207
-0.011500854 0.0025031865 0.00047159195 6238474
-0.010217048 0.0030838549 0.00026041269 6108422
-0.0089646205 0.0044631958 0.0018869042 6307586
-0.0076773837 0.0050453842 0.0016751289 6504194
-0.0063901432 0.0056276023 0.0014633536 6701059
-0.0050818175 0.0054064989 -0.00058454275 6897667
-0.0037980154 0.0059871674 -0.00079572201 7028996
-0.0025142059 0.0065678358 -0.0010069609 7159557
-0.0012411848 0.007956475 0.00061619282 7224582
4.6052039e-05 0.0085386932 0.00040435791 7355154
0.0013332963 0.0091209114 0.00019258261 7619359
0.0026205331 0.0097031295 -1.9192696e-05 7946515
0.0039077699 0.010285348 -0.0002310276 7552776
0.0051950142 0.010867536 -0.00044280291 7158021
0.0065067783 0.013492942 0.0039227009 7026178
0.0078025982 0.014079034 0.0037094951 6900742
-0.010871403 0.0050906539 0.0016586781 6107652
-0.0095841624 0.0056728721 0.0014469028 6109441
-0.0082969218 0.0062550902 0.0012350678 6111233
-0.007009685 0.0068373084 0.0010232925 6373121
-0.0057224445 0.0074195266 0.00081151724 6635009
-0.004435204 0.0080017447 0.00059968233 6830850
-0.0031479672 0.0085839331 0.00038790703 7026948
-0.0018607229 0.0091661513 0.00017613173 7092487
-0.00057348609 0.0097483695 -3.5643578e-05 7223578
0.00071375072 0.010330588 -0.00024747849 7355182
0.0020009875 0.010912806 -0.00045925379 7552536
0.0032882318 0.011495024 -0.00067102909 7224066
0.0045825616 0.013305604 0.0018625259 6895874
0.0058749467 0.013890147 0.0016499162 6763267
0.0071673393 0.01447469 0.0014372468 6635787
0.0084597245 0.015059263 0.001224637 6835219
-0.011490941 0.0063003302 0.001218617 6110466
-0.010238387 0.0076876283 0.0028421283 5910273
-0.0089164637 0.0074647665 0.00079506636 5782529
-0.0076292232 0.0080469847 0.00058323145 6110721
-0.0063419864 0.0086292028 0.00037145615 6437891
-0.0050547458 0.009211421 0.00015968084 6633990
-0.0037675053 0.0097936392 -5.2154064e-05 6895368
-0.0024802685 0.010375857 -0.00026392937 7025931
-0.0011930317 0.010958076 -0.00047570467 7156247
9.4212592e-05 0.011540294 -0.00068747997 7155492
0.0013814494 0.012122512 -0.00089931488 7156759
0.002668336 0.013525307 0.00071853399 6895881
0.0039605424 0.014520139 0.0014207363 6698247
0.0052529275 0.015104681 0.0012081265 6566150
0.0065453202 0.015689224 0.00099545717 6437901
0.0078377053 0.016273767 0.0007828474 6636820
0.0091300905 0.01685831 0.00057017803 6838034
0.010422483 0.017442852 0.00035756826 6707728
-0.010859583 0.008900553 0.0024009347 6242305
-0.009568911 0.0094843209 0.0021885633 5847297
-0.0082782395 0.010068089 0.001976192 5978113
-0.0069875643 0.010651857 0.0017638206 6108934
-0.0056968927 0.011235625 0.0015515089 6437387
-0.0044062212 0.011819392 0.0013391376 6763533
-0.0031155497 0.01240316 0.0011267662 6828815
-0.0018248782 0.012986928 0.00091439486 6892309
-0.00053420663 0.013570696 0.00070202351 6826523
0.0007564649 0.014154464 0.00048971176 6760726
0.0020471364 0.014738232 0.00027734041 6565137
0.0033385158 0.015734673 0.00097894669 6369549
0.0046309084 0.016319215 0.00076627731 6304009
0.005923301 0.016903758 0.00055366755 6305551
0.0072156861 0.017488301 0.00034099817 6505237
0.0085080713 0.018072844 0.0001283884 6705429
0.0098004639 0.018657386 -8.4280968e-05 6641429
-0.010190103 0.010697216 0.0017473102 5979655
-0.0088994317 0.011280984 0.0015349984 5845773
-0.0076087601 0.011864752 0.0013226271 5781257
-0.0063180886 0.012448519 0.0011102557 6175494
-0.0050274171 0.013032287 0.00089788437 6632967
-0.0037367493 0.013616055 0.00068557262 6631944
-0.0024460703 0.014199823 0.00047320127 6694411
-0.0011553988 0.014783591 0.00026082993 6563599
0.00013527274 0.015367389 4.8458576e-05 6432783
0.0014259443 0.015951157 -0.00016391277 6236431
0.0027166158 0.016534925 -0.00037622452 6105613
0.0040072873 0.017118692 -0.00058859587 6105867
0.0052979589 0.01770246 -0.00080096722 6172939
0.0065886304 0.018286228 -0.0010133386 6373900
0.0078793019 0.018869996 -0.0012256503 6573076
0.0091784447 0.01987192 -0.00052607059 6640924
0.01047083 0.020456463 -0.00073873997 6708255
-0.0095206238 0.012493908 0.0010937452 5843226
-0.0082006082 0.012258261 -0.00094866753 5580813
-0.0069392808 0.013661444 0.00066906214 5779457
-0.0056486093 0.014245212 0.00045669079 6043905
-0.004357934 0.01482898 0.00024431944 6106113
-0.0030672625 0.015412748 3.194809e-05 6234370
-0.0017765909 0.015996516 -0.00018036366 6168580
-0.00048591942 0.016580284 -0.000392735 6168585
0.00080475211 0.017164052 -0.00060510635 6037774
0.0020954236 0.017747819 -0.0008174777 5906957
0.0033860952 0.018331587 -0.0010298491 5974285
0.0046767667 0.018915355 -0.0012421608 6105864
0.0059674382 0.019499123 -0.0014545321 6307075
0.0072581172 0.020082891 -0.0016669035 6506259
0.0085487813 0.020666659 -0.0018792748 6639139
0.0098394528 0.021250427 -0.0020915866 6708777
-0.00882015 0.013467938 -0.0013887286 5448455
-0.0075604729 0.014874339 0.00022780895 5449985
-0.0062698014 0.015458107 1.5437603e-05 5449729
-0.0049791299 0.016041875 -0.00019687414 5646081
-0.0036884546 0.016625643 -0.00040924549 5840641
-0.0023977831 0.017209411 -0.00062161684 5840386
-0.0011071116 0.017793179 -0.00083398819 5906437
0.00018355995 0.018376946 -0.0010462999 5775368
0.0014742315 0.018960744 -0.0012586713 5711111
0.002764903 0.019544512 -0.0014710426 5908231
0.0040555745 0.02012828 -0.001683414 6106629
0.0053462461 0.020712048 -0.0018957853 6305796
0.0066369176 0.021295816 -0.0021080971 6504724
0.0079275891 0.021879584 -0.0023204684 6637604
0.0092182606 0.022463351 -0.0025328398 6772259
0.01050894 0.023047119 -0.0027452111 6445602
-0.0081816688 0.016087264 -0.00021338463 5446914
-0.0068909936 0.016671032 -0.00042575598 5250305
-0.0056003258 0.0172548 -0.00063812733 5380609
-0.0043096542 0.017838567 -0.00085049868 5511169
-0.0030189753 0.018422335 -0.0010628104 5644033
-0.0017283112 0.019006103 -0.0012751818 5775617
-0.0004376322 0.019589871 -0.0014875531 5709570
0.00085303932 0.020173639 -0.0016999245 5711873
0.0021437109 0.020757407 -0.0019122362 5908737
0.0034343824 0.021341175 -0.0021246076 6107651
0.0047250539 0.021924943 -0.0023369789 6305030
0.0060157254 0.022508711 -0.0025493503 6503446
0.007306397 0.023092479 -0.0027617216 6635814
0.0085970685 0.023676246 -0.0029740334 6835741
0.00988774 0.024260014 -0.0031864047 6707221
-0.0088182911 0.017715484 0.00025838614 5444881
-0.0075121894 0.017883956 -0.00086700916 5051145
-0.0062215179 0.018467724 -0.0010793209 5116417
-0.0049308464 0.019051492 -0.0012916923 5183234
-0.0036401749 0.01963526 -0.0015040636 5382403
-0.0023495033 0.020219028 -0.001716435 5644551
-0.0010588318 0.020802796 -0.0019287467 5709323
0.00023184717 0.021386564 -0.002141118 5777414
0.0015225112 0.021970332 -0.0023534894 5975041
0.0028131902 0.0225541 -0.0025658607 6172674
0.0041038543 0.023137867 -0.0027781725 6304516
0.0053945333 0.023721635 -0.0029905438 6502166
0.0066851974 0.024305403 -0.0032029152 6699816
0.0079758763 0.024889171 -0.0034152865 6898219
-0.0094403103 0.018930018 -0.0001834631 5580833
-0.0081479251 0.019514561 -0.00039607286 5245457
-0.0068555325 0.020099103 -0.00060868263 4919553
-0.0055631474 0.020683646 -0.00082135201 4658691
-0.004261367 0.020848155 -0.0019452572 5054469
-0.0029783696 0.021852732 -0.0012466311 5513485
-0.0016800165 0.022015691 -0.0023699999 5645333
-0.00038935244 0.022599459 -0.0025823712 5777419
0.00090132654 0.023183227 -0.002794683 5974785
0.0021919906 0.023766994 -0.0030070543 6106626
0.0034826696 0.024350762 -0.0032194257 6238467
0.0047733411 0.02493453 -0.003431797 6435606
-0.008769948 0.020729095 -0.00083786249 5449225
-0.0074775591 0.021313637 -0.0010505319 4788481
-0.0061851703 0.02189818 -0.0012631416 4199938
-0.0048927814 0.022482723 -0.001475811 4792323
-0.0036003962 0.023067266 -0.0016884208 5383175
-0.0023012161 0.023228616 -0.0028111935 5581067
-0.0010105371 0.023812383 -0.0030235648 5842950
0.00028012693 0.024396151 -0.0032359362 5974529
-0.0093919635 0.021943599 -0.0012797117 6110209
-0.0081285313 0.023371607 0.00032913685 5251329
-0.0068071857 0.023112714 -0.0017049909 4396801
-0.0055148005 0.023697257 -0.0019176006 4792321
-0.0042224079 0.0242818 -0.00213027 5187329
-0.0029224083 0.02444154 -0.0032524467 5384193
-0.0087522045 0.02458936 -0.00011384487 5648641
-0.0074292049 0.024327219 -0.0021467805 4596737
-0.006136816 0.024911761 -0.0023593903 4792578
-0.0079996511 0.00022964925 0.00066816807 7225349
-0.0089341253 0.00088644028 -0.0013394952 7028484
-0.010050468 0.0014349297 -0.0013437867 6834946
-0.0053333454 0.00017398596 0.0019188523 6961671
-0.0064445511 0.0007199496 0.0019146204 7092745
-0.0074640065 0.001321733 0.00090909004 7224594
-0.0085769296 0.0018685386 0.00090479851 7094556
-0.0095131807 0.0025303662 -0.0011021495 7031056
-0.0027749389 6.41644e-05 0.0041697025 6107396
-0.0038827285 0.00060844421 0.0041654706 6501128
-0.0047985315 0.0012643933 0.0021593571 6895113
-0.0059097335 0.0018103495 0.0021551251 7091467
-0.0069283657 0.0024138242 0.0011499524 7353632
-0.0079504177 0.0030189753 0.00014472008 7356469
-0.0090650469 0.0035666153 0.00014048815 7424030
-2.618134e-05 6.2659383e-05 0.0044179559 5121286
-0.0011339709 0.0006069392 0.0044137239 5581825
-0.0022417679 0.001151219 0.004409492 6042117
-0.0031524971 0.0018088445 0.0024041533 6435337
-0.0042637065 0.0023548007 0.0023999214 6829577
-0.0052798092 0.0029591024 0.0013951063 7156746
-0.0063927248 0.0035059005 0.0013908744 7485718
-0.0074139535 0.0041127428 0.00038599968 7618339
-0.0084386021 0.0047212541 -0.00061887503 7815955
-0.0095549412 0.0052697361 -0.00062310696 7227140
0.0029383749 0.00016945601 0.0026659966 4266762
0.0018271655 0.0007154122 0.0026617646 4660756
0.00071595609 0.0012613758 0.0026574731 5115402
-0.00060079992 0.0016939938 0.0046535134 5516801
-0.0015064627 0.0023532957 0.0026489496 5976837
-0.0026176721 0.0028992593 0.0026447177 6369546
-0.0037288889 0.003445223 0.0026404262 6764041
-0.0047441646 0.0040511936 0.0016360283 7026185
-0.0058570802 0.0045979992 0.0016317964 7356685
-0.0068774894 0.005206503 0.00062727928 7487505
-0.0079921186 0.005754143 0.00062298775 7618569
-0.0090176538 0.00636518 -0.00038146973 7161857
0.0059198961 0.00027622283 0.00091552734 3479816
0.0048052669 0.00082386285 0.00091129541 3807745
0.0035819188 0.0013156831 0.0019068122 4201223
0.0025760084 0.0019191429 0.00090271235 4660494
0.0013560802 0.0024092793 0.0018982887 5121799
0.00024315715 0.0029560775 0.0018939972 5517569
-0.00086976588 0.003502883 0.0018897057 5976326
-0.0019826815 0.0040496811 0.0018854737 6304012
-0.0029971376 0.0046573505 0.00088137388 6698254
-0.0041117668 0.0052049905 0.00087708235 6961424
-0.0053214394 0.0056900829 0.0018726587 7290126
-0.0063410252 0.0063002706 0.00086855888 7359501
-0.0074556544 0.0068479106 0.00086426735 7424520
-0.0085702837 0.0073955506 0.00085997581 7162115
0.0075709969 0.00082235038 0.0011610985 5259523
0.0064563602 0.0013699904 0.0011568069 4203010
0.005452998 0.0019742996 0.00015312433 4265729
0.0042271018 0.0024652705 0.0011482835 4332292
0.00311248 0.0030129105 0.0011439919 4661256
0.0019978434 0.0035605505 0.0011397004 5056517
0.00077880174 0.0040481687 0.0021349192 5449730
-0.00033412129 0.0045949668 0.0021306276 5777416
-0.0014470369 0.0051417723 0.0021263361 6105614
-0.0024606735 0.0057511181 0.0011226535 6433811
-0.0036728755 0.006235376 0.0021178126 6763544
-0.0047857985 0.0067821741 0.0021135807 7026960
-0.0058045611 0.0073940381 0.0011098385 7292425
-0.0069191903 0.0079416782 0.001105547 7555079
-0.0080338195 0.0084893182 0.0011012554 7226630
0.0059902817 0.0030697435 0.00039476156 4723969
0.004763566 0.0035590306 0.0013895631 4462082
0.0037576035 0.0041667074 0.0003862381 4727812
0.0025343001 0.0046543106 0.00138098 5056003
0.0014196783 0.0052019507 0.0013767481 5318659
0.0002015233 0.005687058 0.0023715496 5646088
-0.00091139972 0.0062338561 0.0023672581 5906958
-0.0019242167 0.0068448782 0.0013639331 6236434
-0.0030388385 0.0073925182 0.0013596416 6500118
-0.0042501539 0.0078742579 0.0023544431 6830108
-0.0052680969 0.0084877983 0.0013510585 7290913
-0.0063827261 0.0090354383 0.0013468266 7749909
-0.0074973591 0.0095830783 0.001342535 7356938
0.0065275729 0.00416518 0.00063639879 4790017
0.0053000301 0.0046528056 0.0016307831 4329985
0.0042948872 0.0052621439 0.00062787533 4661249
0.0030707717 0.0057480857 0.0016222596 4989698
0.0019561499 0.0062957257 0.0016179681 5252868
0.00084151328 0.0068433657 0.0016137362 5580297
-0.00027310848 0.0073910058 0.0016094446 5776910
-0.0013877451 0.0079386458 0.0016051531 5973777
-0.0025023669 0.0084862858 0.0016009212 6303509
-0.0036170036 0.0090339258 0.0015966296 6567719
-0.0046358183 0.009649992 0.00059360266 6961466
-0.0057521649 0.010198474 0.00058931112 7355172
-0.0066837296 0.010887139 -0.0014123321 7226126
-0.0078034848 0.011437304 -0.0014166236 7032071
0.0070648566 0.0052606314 0.00087803602 4856321
0.0059485212 0.0058091134 0.00087374449 4201218
0.0048321784 0.0063575953 0.00086951256 4594691
0.003715843 0.0069060698 0.00086522102 4990733
0.0025995001 0.0074545518 0.00086092949 5252888
0.0013779774 0.0079371259 0.0018550158 5514770
0.00036682189 0.0085515156 0.00085234642 5644300
-0.00074951351 0.0090999901 0.00084811449 5777422
-0.0018658563 0.0096484721 0.00084382296 6041361
-0.0029821917 0.010196954 0.00083953142 6370585
-0.0040985346 0.010745436 0.00083523989 6698785
-0.0052148774 0.011293918 0.00083094835 7027989
-0.0061447956 0.011985935 -0.0011699796 7030024
-0.0072645545 0.012536101 -0.0011742711 7097093
-0.0083843097 0.013086259 -0.0011785626 6901762
0.0078312308 0.0064828098 -0.00087606907 4662017
0.0067114756 0.0070329681 -0.0008803606 3742211
0.0055917129 0.0075831339 -0.00088465214 4267781
0.0044719577 0.0081332847 -0.00088894367 4795160
0.0031367913 0.0085499957 0.0011025667 5056812
0.0020204484 0.0090984702 0.0010982752 5318427
0.00090411305 0.0096469522 0.0010939837 5449738
-7.070601e-06 0.010333933 -0.00090610981 5581324
-0.0013285652 0.010743916 0.0010854602 5844494
-0.002444908 0.011292398 0.0010811687 6173451
-0.0035612434 0.01184088 0.0010768771 6567689
-0.0044861063 0.012534574 -0.00092327595 6962950
-0.0056058615 0.013084732 -0.00092756748 7030019
-0.0067256242 0.013634898 -0.00093185902 7096835
-0.0078453794 0.014185056 -0.00093615055 7031811
-0.0089651383 0.014735214 -0.00094044209 6967042
0.0083701685 0.0075816065 -0.00063371658 4533265
0.0072504133 0.0081317648 -0.00063800812 3352334
0.0061306506 0.0086819306 -0.00064229965 3940876
0.0050108954 0.0092320815 -0.00064659119 4599059
0.0038911328 0.0097822472 -0.00065088272 4861211
0.0027713776 0.010332406 -0.00065517426 5122065
0.0016516224 0.010882564 -0.00065946579 5253640
0.0005318597 0.01143273 -0.00066375732 5383947
-0.00079128146 0.01183936 0.0013270974 5710862
-0.0019076169 0.012387842 0.0013228059 6042126
-0.0030239522 0.012936324 0.0013185143 6502158
-0.003947176 0.01363337 -0.00068092346 6962184
-0.0050669312 0.014183529 -0.000685215 7030274
-0.0061866865 0.014733694 -0.00068950653 7161351
-0.0073064454 0.015283853 -0.00069379807 7161613
-0.0084262043 0.015834011 -0.0006980896 7162897
-0.0095459633 0.016384169 -0.00070238113 6837013
0.0077893436 0.0092305616 -0.00039559603 3614746
0.0066695809 0.0097807273 -0.00039988756 4072211
0.0055498257 0.010330886 -0.0004041791 4534030
0.0044300705 0.010881044 -0.00040847063 4730122
0.0033103079 0.01143121 -0.00041276217 4991240
0.0021905527 0.011981368 -0.0004170537 5187591
0.0010707974 0.012531526 -0.00042134523 5448714
-4.8965216e-05 0.013081692 -0.00042563677 5777422
-0.0013703331 0.013483278 0.0015644431 6107408
-0.0022884756 0.014182009 -0.00043421984 6501907
-0.0034082383 0.014732175 -0.00043851137 6896138
-0.0045279935 0.015282333 -0.00044280291 7094786
-0.0056477562 0.015832491 -0.00044709444 7291916
-0.0067675114 0.01638265 -0.00045138597 7292183
-0.0078872703 0.016932815 -0.00045567751 7359008
-0.0090070292 0.017482974 -0.00045996904 7033385
0.0084435791 0.010398611 -0.0011500716 3875855
0.0073221102 0.010949612 -0.0011543632 4203786
0.0062006414 0.011500612 -0.0011586547 4532488
0.0050791726 0.012051612 -0.0011629462 4664582
0.0038492382 0.012530006 -0.00017040968 4860166
0.0027294904 0.013080165 -0.00017470121 5187335
0.0016097277 0.013630323 -0.00017899275 5515279
0.00048996508 0.014180489 -0.00018328428 5843991
-0.00062979013 0.014730647 -0.00018757582 6172455
-0.0017495453 0.015280806 -0.00019186735 6501943
-0.002869308 0.015830971 -0.00019615889 6896669
-0.0039890632 0.01638113 -0.00020045042 7159556
-0.0051088221 0.016931288 -0.00020474195 7488520
-0.0062285811 0.017481446 -0.00020903349 7488525
-0.0073483363 0.018031612 -0.00021332502 7554833
-0.0084680989 0.01858177 -0.00021761656 7229973
0.0089833364 0.011499085 -0.0009073019 4464643
0.0078618675 0.012050092 -0.00091159344 4333569
0.0067403987 0.012601092 -0.00091588497 4268033
0.0056189299 0.013152093 -0.00092017651 4531202
0.004497461 0.013703093 -0.00092452765 4794628
0.0032684207 0.014178969 6.7710876e-05 5122311
0.002148658 0.014729127 6.3419342e-05 5384468
0.0010289028 0.015279286 5.9127808e-05 5712929
-9.085238e-05 0.015829444 5.4836273e-05 6041150
-0.001210615 0.01637961 5.0544739e-05 6435931
-0.0023303777 0.016929768 4.6253204e-05 6831665
-0.0034501255 0.017479926 4.196167e-05 7225351
-0.0045698881 0.018030085 3.7670135e-05 7619845
-0.0056896433 0.01858025 3.3378601e-05 7685123
-0.006809406 0.019130409 2.9087067e-05 7816194
-0.0079291612 0.019680567 2.4795532e-05 7294721
-0.0090489201 0.020230733 2.0503998e-05 6772993
0.0095230937 0.012599558 -0.00066453218 5125890
0.0084016174 0.013150558 -0.00066888332 4527361
0.007280156 0.013701558 -0.00067317486 4005121
0.0061586872 0.014252558 -0.00067746639 4399617
0.0050372183 0.014803559 -0.00068175793 4793859
0.003807351 0.015277766 0.00031006336 5056773
0.0026875958 0.015827924 0.00030577183 5319181
0.0015678331 0.016378082 0.00030148029 5647381
0.00044807792 0.016928241 0.00029718876 5976108
-0.00067168474 0.017478406 0.00029289722 6370115
-0.00179144 0.018028565 0.00028860569 6766116
-0.0029111952 0.018578723 0.00028431416 7225606
-0.0040309578 0.019128881 0.00028002262 7751428
-0.005150713 0.019679047 0.00027573109 7948034
-0.006270472 0.020229205 0.00027143955 8145410
-0.0073902309 0.020779364 0.00026714802 7359746
-0.0085099861 0.02132953 0.00026285648 6640897
0.010062844 0.013700038 -0.00042182207 5262849
0.0090574473 0.014326155 -0.0014217496 4659713
0.0079342723 0.014877997 -0.0014261007 4135425
0.0068110898 0.015429839 -0.0014303923 4399361
0.0055769756 0.015904039 -0.00043898821 4662274
0.0044555068 0.016455039 -0.00044327974 4990979
0.0033340454 0.01700604 -0.00044757128 5319686
0.0022125766 0.01755704 -0.00045192242 5647370
0.00098700821 0.018027037 0.00053960085 5976859
-0.00013274699 0.018577203 0.00053530931 6371116
-0.00115183 0.019210041 -0.00046479702 6766104
-0.0022732988 0.019761041 -0.00046908855 7226117
-0.0034920201 0.020227678 0.00052243471 7686403
-0.0046117753 0.020777844 0.00051814318 8013825
-0.0057315379 0.021328002 0.00051379204 8276994
-0.0068512969 0.021878161 0.0005095005 7686659
-0.0079710558 0.022428326 0.00050520897 7098882
0.010533124 0.01604268 -0.0091412663 4857866
0.0093962699 0.016601242 -0.0091456175 4266501
0.0073516667 0.016531989 -0.0011872649 4399361
0.006116733 0.017004512 -0.0001962781 4596226
0.0051053166 0.017635666 -0.001195848 4925187
0.0039821416 0.018187508 -0.0012001991 5319428
0.0027523339 0.018657513 -0.0002091527 5647621
0.001630865 0.019208513 -0.00021344423 5976853
0.0005093962 0.019759513 -0.00021773577 6372133
-0.00061207265 0.020310514 -0.0002220273 6764821
-0.0017335415 0.020861514 -0.00022631884 7226886
-0.0028550103 0.021412514 -0.00023066998 7685895
-0.0039764792 0.021963514 -0.00023496151 8079625
-0.005097948 0.022514515 -0.00023925304 8473620
-0.0062194131 0.023065515 -0.00024354458 8013856
0.01108028 0.017158248 -0.0088952184 5123347
0.0091314316 0.017161615 -0.0019348264 4594186
0.0078922436 0.017634138 -0.00094413757 4398081
0.0067690685 0.018185981 -0.00094842911 4201986
0.0057567656 0.01881966 -0.0019477606 4729091
0.0045227185 0.019289657 -0.00095707178 5319170
0.003399536 0.0198415 -0.00096136332 5647873
0.002276361 0.020393342 -0.00096565485 6042383
0.001153186 0.020945184 -0.00097000599 6370078
3.0003488e-05 0.021497026 -0.00097429752 6698003
-0.0010931715 0.022048861 -0.00097858906 7095560
-0.0022163466 0.022600703 -0.00098288059 7489036
-0.003339529 0.023152545 -0.00098717213 7817745
-0.00436721 0.023793779 -0.0019865632 8211495
-0.0054920986 0.024346456 -0.0019909143 8080446
0.011034772 0.017873064 -0.0036762357 5388813
0.0095560029 0.018184446 -0.00069671869 4923655
0.008317709 0.018654458 0.00029355288 4332033
0.0073096454 0.01928813 -0.00070536137 3809281
0.0061864704 0.019839972 -0.0007096529 4598786
0.0050632954 0.020391807 -0.00071394444 5384706
0.0039401203 0.020943649 -0.00071823597 5713667
0.0028169453 0.021495491 -0.0007225275 6106900
0.0016937628 0.022047333 -0.00072687864 6369061
0.00057058036 0.022599176 -0.00073117018 6633239
-0.00055259466 0.02315101 -0.00073546171 6964489
-0.0015760362 0.023792252 -0.0017344952 7292937
-0.0027009249 0.024344929 -0.0017387867 7621386
0.011577822 0.01898025 -0.0034319758 5588999
0.01009658 0.019286603 -0.00045359135 5253380
0.0089734048 0.019838445 -0.00045788288 4661505
0.0078502297 0.020390287 -0.00046223402 4071937
0.0068395734 0.021027319 -0.0014607906 4597249
0.0057146847 0.021579996 -0.0014650822 5122819
0.0044806972 0.022045806 -0.00047510862 5450501
0.0033575222 0.022597648 -0.00047945976 5778457
0.0022343472 0.02314949 -0.0004837513 6041133
0.0012151375 0.023790717 -0.0014823675 6306332
9.0256333e-05 0.024343401 -0.001486659 6702091
-0.0010346323 0.024896078 -0.0014909506 7163399
0.010637164 0.02038876 -0.000210464 5587460
0.0095139816 0.020940602 -0.00021481514 4989187
0.0085058659 0.021578468 -0.0012130141 4399365
0.0073809773 0.022131152 -0.0012173057 4661767
0.0062560886 0.022683829 -0.0012215972 4923910
0.0051312 0.023236513 -0.0012259483 5186054
0.0040063113 0.02378919 -0.0012302399 5450515
0.0028814301 0.024341866 -0.0012345314 5713185
0.0017565414 0.02489455 -0.0012388825 5977627
0.010054559 0.022042751 2.8312206e-05 5189894
0.0090472624 0.022682294 -0.00096952915 4265225
0.0079223737 0.023234978 -0.00097382069 4398605
0.0067974925 0.023787655 -0.00097811222 4598282
0.0056726038 0.024340339 -0.00098246336 4925959
0.0045477152 0.024893016 -0.00098675489 5253902
0.0095886663 0.023786128 -0.00072604418 4136972
0.0084637776 0.024338812 -0.00073033571 4200972
0.0073388964 0.024891488 -0.00073462725 4269320
0.010130063 0.024889953 -0.0004824996 4729614
