# .PCD v0.7 - Point Cloud Data file format
VERSION 0.7
FIELDS x y z rgba
SIZE 4 4 4 4
TYPE F F F U
COUNT 1 1 1 1
WIDTH 225
HEIGHT 1
VIEWPOINT 0 0 0 1 0 0 0
POINTS 225
DATA ascii
0.0026675016 0.00025629997 -0.0021604896 6430244
0.00394959 0.00083620101 -0.0023714304 6432041
-0.00051373988 0.00030136108 -0.0021768808 5971487
0.00076834857 0.00088126212 -0.0023878217 6235175
0.002050437 0.0014611557 -0.0025987625 6563615
0.0033325329 0.0020410568 -0.0028097034 6564376
-0.0024091229 0 -0.0041953921 5643290
-0.0011304617 0.00057835132 -0.0044057965 6102564
0.0001481995 0.0011566952 -0.0046162009 6366255
0.0014268532 0.0017350465 -0.0048265457 6695963
0.002705507 0.0023133531 -0.0050369501 6827783
0.0039841682 0.002891697 -0.0052472949 6962195
0.0052628219 0.0034700111 -0.0054576993 6897951
-0.0055818483 4.4986606e-05 -0.0042117834 4264195
-0.0043031797 0.00062329322 -0.0044221282 5315849
-0.0030245259 0.0012016371 -0.0046325326 5774351
-0.0017458722 0.001779981 -0.004842937 6233110
-0.00046721101 0.0023583248 -0.0050532818 6563102
0.00081145018 0.0029366463 -0.0052636862 6892305
0.0020901039 0.0035149828 -0.005474031 7091204
0.0033804998 0.0050306469 -0.0038972497 7355146
0.0046625808 0.0056105331 -0.0041081905 7161104
-0.00875457 8.9921057e-05 -0.0042281151 5388801
-0.0074759126 0.00066826493 -0.0044385195 4264193
-0.0061972514 0.0012465864 -0.0046488643 4722177
-0.0049185976 0.0018249229 -0.0048592687 5251074
-0.0036399364 0.0024032667 -0.0050696135 5643524
-0.0023612753 0.0029816106 -0.0052800179 6101769
-0.0010826215 0.0035599247 -0.0054904222 6497038
0.00019603223 0.0041382611 -0.005700767 6826504
0.0014813393 0.0056555942 -0.0041245818 7286786
0.0027634352 0.0062354803 -0.0043355227 7748098
0.0040522888 0.0072864369 -0.0036537647 7357698
0.0053360835 0.0078671053 -0.0038650036 7033864
-0.010648642 0.00071323663 -0.0044548512 6578443
-0.0093699843 0.0012915507 -0.0046652555 5916673
-0.0080913231 0.0018698946 -0.0048756003 5318660
-0.0068126693 0.0024482012 -0.0050860047 5245959
-0.0055340081 0.0030265525 -0.0052963495 5184261
-0.004255347 0.0036048964 -0.0055067539 5578243
-0.0029766932 0.0041832402 -0.0057171583 6036492
-0.0016980395 0.0047615543 -0.0059275031 6431253
-0.00041937828 0.0053398907 -0.0061379075 6825742
0.0008642748 0.0068604425 -0.0045628548 7482631
0.0021463707 0.007440336 -0.0047737956 8139780
0.0034343973 0.0084928945 -0.0040926337 7620097
0.0047334954 0.010020472 -0.0025200248 7165956
0.0060207322 0.01060269 -0.0027318001 7036680
-0.011264052 0.0019148365 -0.0048919916 6709506
-0.0099853948 0.0024931803 -0.0051023364 6181377
-0.0087067373 0.0030714944 -0.0053127408 5652231
-0.0074280798 0.0036498308 -0.0055230856 5250317
-0.0061494187 0.0042281821 -0.00573349 4789768
-0.0048707649 0.004806526 -0.0059438944 5381635
-0.0035921037 0.0053848401 -0.0061542392 5971472
-0.0023134425 0.0059631839 -0.0063646436 6299933
-0.0010347888 0.0065414906 -0.0065749884 6628372
0.00024721771 0.0080652907 -0.0050011873 7088396
0.0015293136 0.0086451843 -0.0052121282 7548422
0.0028114021 0.0092250705 -0.005423069 7360513
0.0041139573 0.011230148 -0.0029600859 7101697
0.0054011941 0.011812367 -0.0031718612 6971649
-0.0067648217 0.0054298118 -0.0061706305 4466440
-0.005486168 0.0060081258 -0.0063809752 5185282
-0.0042075142 0.0065864772 -0.0065913796 5905929
-0.002928853 0.0071647838 -0.0068017244 6166801
-0.0016501918 0.0077431202 -0.0070121288 6498320
-0.0003715381 0.0083214715 -0.0072225332 6764559
0.00091224909 0.0098500326 -0.0056504011 7031048
0.0021943375 0.010429926 -0.005861342 7035649
0.003476426 0.01100982 -0.0060722828 7102209
0.004781656 0.013022073 -0.0036119223 6906881
-0.0073802397 0.0066314414 -0.0066077113 5384457
-0.0061015859 0.0072097555 -0.0068181157 5841665
-0.0048229247 0.0077881068 -0.0070284605 6299139
-0.0035442635 0.0083664134 -0.0072388649 6432005
-0.0022656098 0.0089447573 -0.0074492693 6565131
-0.00098695606 0.0095231012 -0.0076596141 6638098
0.00029518455 0.011054881 -0.0060886741 6708233
0.001577273 0.011634775 -0.0062996149 6840065
0.0028593615 0.012214668 -0.0065105557 6971905
-0.0054502413 0.0099401549 -0.0056831837 6704898
-0.0041681528 0.010520048 -0.0058941245 6639364
-0.0028860644 0.011099942 -0.0061050653 6641158
-0.0016039684 0.011679836 -0.0063160062 6511881
-0.00032097101 0.012738086 -0.0056368709 6447109
0.00096283853 0.013318725 -0.0058481097 6644737
0.0022423044 0.013419487 -0.0069488287 6841089
-0.0044723302 0.00025125593 0.0055814385 7486222
-0.0055219978 0.00094284117 0.004588902 7291400
-0.0066708177 0.0015072823 0.0045844913 7162883
-0.0017294064 0.00012254715 0.0068261623 7353658
-0.002773121 0.00081329048 0.0058341026 7879460
-0.0039202347 0.0013768971 0.0058297515 7617294
-0.0047725439 0.0023294836 0.002862215 7356424
-0.0061178952 0.0026346073 0.0048331618 7227394
-0.0072667152 0.0031990334 0.0048287511 7098369
0.0011126772 0.00012098998 0.0070828795 6239494
7.3201954e-05 0.00081173331 0.0060912371 6632724
-0.0010739118 0.0013753325 0.0060868263 7353633
-0.002118513 0.0020685941 0.005095005 8140822
-0.0032673329 0.0026330352 0.0050905943 7748363
-0.0042179823 0.0034601539 0.0031116605 7421195
-0.005370222 0.0040262714 0.0031071901 7291915
-0.0065224618 0.0045923963 0.0031027794 7227910
0.0040666312 0.00024657696 0.0063527226 5189889
0.0029195175 0.00081017613 0.0063483119 5517313
0.0017724112 0.0013737753 0.0063439012 5910017
0.00073204935 0.0020670369 0.0053524971 6302725
-0.00041677058 0.0026314706 0.0053480864 6828041
-0.0015655905 0.0031959116 0.0053436756 7418377
-0.0025111735 0.0040247068 0.0033654571 7354633
-0.0036634132 0.0045908242 0.0033610463 7223823
-0.004815653 0.0051569417 0.0033566356 7355413
-0.0059678927 0.0057230666 0.0033522248 7486987
0.0084135458 6.0304999e-05 0.0036545992 5715713
0.0070290789 0.0003721565 0.0056232214 5252609
0.005880259 0.00093659014 0.0056188107 4860929
0.0047314316 0.0015010312 0.0056143999 4993281
0.0035826117 0.0020654723 0.0056099892 5189377
0.0024337918 0.0026299134 0.0056055784 5581313
0.0015001148 0.0034570172 0.0036281347 5974531
0.00034787506 0.0040231422 0.003623724 6369030
-0.00080436468 0.0045892671 0.0036193132 6763014
-0.0019566044 0.0051553771 0.0036148429 6895366
-0.0030081198 0.0058561936 0.0026239157 7091986
-0.0041620657 0.006423153 0.0026194453 7419166
-0.0053160116 0.0069901124 0.0026150346 7748121
0.0089681149 0.0011909753 0.0039040446 5786625
0.0079328194 0.0018859059 0.002913475 5320961
0.0066636428 0.0023232102 0.0038952231 4926721
0.0055113956 0.0028893203 0.0038907528 4861185
0.0043591559 0.0034554526 0.003886342 4861441
0.0032069162 0.0040215701 0.0038819313 5254145
0.0021630675 0.0047207028 0.0028913617 5712130
0.0010091215 0.0052876621 0.002886951 6040836
-0.00014483184 0.0058546215 0.0028825402 6435588
-0.0012987778 0.0064215809 0.0028780699 6763780
-0.0023511648 0.0071249232 0.0018873811 7026710
-0.0035068244 0.007692717 0.0018829703 7223080
-0.0046624839 0.0082605109 0.0018785 7485223
-0.0058181435 0.0088283271 0.0018740892 7158823
0.0084882081 0.0030182526 0.0031632781 5454849
0.0073342547 0.0035852119 0.0031588674 4993281
0.0061803088 0.0041521713 0.003154397 4793345
0.0050263628 0.0047191307 0.0031499863 4598018
0.0038724095 0.0052860901 0.0031455755 4992771
0.0027184561 0.0058530569 0.0031411648 5451018
0.0015645102 0.0064200163 0.003136754 5778450
0.00041056424 0.0069869608 0.0031322837 6172431
-0.00074338168 0.0075539201 0.0031278729 6569484
-0.0017949566 0.0082589462 0.0021375418 7026971
-0.0029506087 0.0088267401 0.0021330714 7094826
-0.0039083511 0.0096740052 0.00015699863 7223590
-0.0050674304 0.010243483 0.00015258789 6894882
-0.0062265098 0.010812961 0.00014811754 6637842
0.0090435967 0.0041506067 0.0034130216 5590017
0.0078896433 0.0047175661 0.0034086108 5190913
0.0067356974 0.0052845255 0.0034042001 4397825
0.005581744 0.0058514848 0.0033997893 3612675
0.0044277981 0.0064184442 0.0033953786 4334085
0.0032738522 0.0069854036 0.0033909082 5121042
0.0021198988 0.007552363 0.0033864975 5384224
0.00096595287 0.0081193224 0.0033820868 5647386
-8.3081424e-05 0.0088251755 0.0023921132 6371604
-0.0010323375 0.0096724257 0.00041675568 7158304
-0.0021914169 0.010241903 0.00041234493 7420716
-0.0032507181 0.010952793 -0.00057756901 7748645
-0.0045095757 0.011380859 0.00040346384 7224862
-0.0056686476 0.011950336 0.00039899349 6701073
0.0095989853 0.0052829534 0.0036628246 5725441
0.0084450319 0.0058499128 0.0036584139 5391876
0.007291086 0.0064168721 0.0036540031 4002312
0.0061371401 0.0069838315 0.0036495328 2692359
0.0049831867 0.0075507909 0.0036451221 3741958
0.0038292333 0.0081177503 0.0036407113 4793102
0.0026752874 0.0086847171 0.0036363006 4988950
0.0015213415 0.0092516765 0.0036318898 5187347
0.00047312677 0.0099591985 0.0026422739 6239505
-0.00068252534 0.010526992 0.0026378036 7288872
-0.0016335621 0.011379279 0.00066322088 7752512
-0.0026920363 0.012091853 -0.00032627583 8273959
-0.0038528219 0.012662165 -0.00033074617 7485967
-0.0050136074 0.013232492 -0.00033521652 6767625
0.010154374 0.0064153001 0.0039126277 6250241
0.009000428 0.0069822669 0.0039081573 6248200
0.0078464746 0.0075492263 0.0039037466 4860175
0.0066925213 0.0081161708 0.0038993359 3476747
0.0055385754 0.0086831301 0.0038949251 4197896
0.0044963211 0.0093898252 0.0029056668 4858634
0.0033406615 0.009957619 0.0029012561 5120524
0.002185002 0.010525428 0.0028968453 5317133
0.0010293424 0.011093222 0.002892375 6106382
8.3379447e-05 0.011947192 0.00091856718 6895153
-0.0010756999 0.01251667 0.00091409683 7224660
-0.0021333545 0.013230912 -7.5042248e-05 7619882
-0.0033938587 0.013655625 0.00090521574 7161601
-0.004552938 0.014225103 0.000900805 6703361
0.010709763 0.0075476542 0.0041623712 6775041
0.0072479174 0.0092485324 0.0041491389 4331014
0.0062081888 0.0099560544 0.0031602979 4654084
0.0050525293 0.010523848 0.0031558275 4987911
0.0038968697 0.011091657 0.0031514168 5248267
0.0027412102 0.011659451 0.003147006 5511950
0.0015855506 0.012227245 0.0031425357 5973521
0.00042989105 0.012795053 0.0031381249 6501928
-0.00051784515 0.013654046 0.0011650324 6763072
-0.0016769245 0.014223523 0.001160562 7029025
-0.0030370802 0.01449845 0.0031248331 6833410
-0.0041927397 0.015066244 0.0031204224 6705921
0.0056087449 0.011657886 0.0034059882 5379333
0.0044530854 0.01222568 0.0034015775 5510410
0.0032974258 0.012793474 0.0033971071 5641487
0.0021417663 0.013361283 0.0033926964 6041109
0.00098610669 0.013929076 0.0033882856 6501920
-0.00016955286 0.01449687 0.0033838153 6634028
-0.0014282912 0.014916547 0.0043634772 6766103
-0.0025822371 0.015483506 0.0043590665 6508547
-0.0036365241 0.016200267 0.0033705235 6249986
0.003853634 0.013927512 0.0036472678 5845770
0.0026979744 0.014495306 0.0036428571 6174479
0.0015423223 0.0150631 0.0036384463 6503187
0.00038666278 0.015630908 0.003633976 6504216
-0.00076899678 0.016198702 0.0036295652 6507789
-0.0019246563 0.016766496 0.0036251545 6183938
