# .PCD v0.7 - Point Cloud Data file format
VERSION 0.7
FIELDS x y z rgba
SIZE 4 4 4 4
TYPE F F F U
COUNT 1 1 1 1
WIDTH 1032
HEIGHT 1
VIEWPOINT 0 0 0 1 0 0 0
POINTS 1032
DATA ascii
0.042080369 0.086074829 0.00023204088 7023918
0.043355595 0.086651623 2.2232533e-05 6893593
0.044630822 0.087228388 -0.00018757582 6828804
0.045906048 0.087805182 -0.00039738417 6829060
0.047181275 0.088381946 -0.00060719252 6960389
0.04837181 0.087832302 -0.0035996437 7091719
0.049611952 0.088030487 -0.0047358274 7288842
0.050880309 0.088604182 -0.0049445033 7485960
0.052282173 0.090689093 -0.0014464855 7158791
0.053522307 0.090887308 -0.0025826693 6896906
0.05479582 0.091463298 -0.0027921796 6766094
-0.052418929 0.030950455 -0.020151436 7289348
-0.051208917 0.031497732 -0.020350516 7355144
-0.049998913 0.032045007 -0.020549595 7486472
-0.049005274 0.033223823 -0.018850267 7289096
-0.047898311 0.034089193 -0.018100977 7091745
-0.046683151 0.034638807 -0.018300951 7025979
-0.045674082 0.035824627 -0.016604006 6960163
-0.044556823 0.036694646 -0.015856385 7025931
-0.043336514 0.037246585 -0.016057193 7091987
-0.042311992 0.038439393 -0.014362872 7223580
-0.041088264 0.038992882 -0.014564216 7355174
-0.039864521 0.039546385 -0.014765561 7487793
-0.038733531 0.040422618 -0.014020145 7685919
-0.037690129 0.041623935 -0.012328982 7751437
-0.036461238 0.042179748 -0.012531161 7882506
-0.035232354 0.042735577 -0.0127334 7947528
-0.034089349 0.043617249 -0.011990011 8078340
-0.032858748 0.044173852 -0.012192488 7947777
-0.031793036 0.045385286 -0.010504901 7883014
-0.030559 0.045943439 -0.010707915 7947275
-0.029403981 0.046830535 -0.0099665523 8011787
-0.028168228 0.047389477 -0.010169864 7815436
-0.026932482 0.04794839 -0.010373175 7685383
-0.025696732 0.048507318 -0.010576487 7618306
-0.024460979 0.049066246 -0.010779858 7485710
-0.023225229 0.049625173 -0.010983169 7289626
-0.022126906 0.05085136 -0.0093009472 7158814
-0.020887721 0.051411837 -0.0095048547 7355170
-0.019648541 0.051972315 -0.0097087622 7551505
-0.018472921 0.052868739 -0.0089706779 7749121
-0.017355714 0.054103434 -0.0072916746 7947522
-0.016111381 0.054666251 -0.0074964166 7881731
-0.014925469 0.055567324 -0.0067601204 7816194
-0.013679419 0.056130916 -0.0069651604 7880961
-0.012433372 0.056694493 -0.0071701407 7945990
-0.011293855 0.057939321 -0.0054946542 8013067
-0.010044374 0.058504447 -0.0057002902 8145164
-0.0088447258 0.059411734 -0.0049661994 7816717
-0.0075935312 0.059977651 -0.0051720738 7423242
-0.0063423365 0.060543567 -0.0053779483 7225352
-0.0050911382 0.061109483 -0.0055838227 7027723
-0.0039258748 0.062365919 -0.0039126873 6961423
-0.0026712492 0.062933385 -0.0041191578 6895373
-0.0014166199 0.063500851 -0.0043255687 6895628
-0.00016199052 0.064068317 -0.0045319796 6961423
0.0010565333 0.064984173 -0.0038009286 7091731
0.00231288 0.065552413 -0.0040076375 7221787
0.0035692267 0.066120654 -0.0042143464 7221796
0.0048255734 0.066688895 -0.0044210553 7287582
0.0060819201 0.067257136 -0.0046277642 7092505
0.0073382668 0.067825377 -0.0048344731 6896149
0.0085946098 0.068393618 -0.005041182 6961681
0.0098509565 0.068961859 -0.0052478909 7028496
0.011107299 0.0695301 -0.0054545999 7094031
0.012363646 0.070098341 -0.0056613088 7225352
0.013619993 0.070666581 -0.0058680177 7093506
0.01487634 0.071234852 -0.0060747266 7027457
0.016132686 0.071803093 -0.0062814355 7158017
0.01740282 0.072012842 -0.0074219704 7288585
0.01865745 0.072580308 -0.0076283813 7353361
0.019912079 0.073147774 -0.0078347921 7420937
0.021166708 0.07371524 -0.0080412626 7354625
0.022414412 0.074644297 -0.00731498 7354374
0.023670759 0.075212538 -0.0075216889 7352588
0.024927106 0.075780779 -0.0077283978 7350028
0.026183452 0.07634902 -0.0079351068 7550732
0.027439672 0.077646583 -0.0062789917 7814928
0.028699454 0.078216404 -0.006486237 7814420
0.029959235 0.078786194 -0.006693542 7879698
0.031229187 0.080089986 -0.0050395131 7877649
0.032478791 0.079925776 -0.0071080923 7878684
0.033755612 0.081232697 -0.0054551959 7811624
0.035029057 0.082173347 -0.0047333241 7680280
0.036293987 0.082745463 -0.0049414635 7482377
0.037558917 0.083317608 -0.0051495433 7285509
0.038854618 0.084633023 -0.0034999251 7022849
0.040174279 0.086324036 -0.0009226799 6825759
0.041466612 0.08727324 -0.00020390749 6695998
0.042741839 0.087850004 -0.00041371584 6630691
0.044017065 0.088426799 -0.00062352419 6630408
0.045292292 0.089003563 -0.00083333254 6630407
0.046567518 0.089580357 -0.0010431409 6763527
0.047815342 0.089780062 -0.0021798611 6960135
0.049088847 0.090356082 -0.002389431 7090951
0.05039319 0.09131071 -0.0016725659 7287558
0.051668409 0.091887474 -0.0018824339 7093766
0.052909378 0.09208408 -0.0030180216 6962192
0.054182891 0.092660099 -0.0032275319 6831899
-0.052016173 0.033266485 -0.018865764 7029020
-0.050913464 0.034131914 -0.018116534 6963216
-0.049916338 0.035316303 -0.016419113 6831876
-0.048697758 0.035867453 -0.016619563 6764049
-0.047584753 0.036737546 -0.015872002 6764575
-0.046572182 0.037928924 -0.014177144 6763796
-0.045348439 0.038482413 -0.014378488 6829066
-0.044124711 0.039035901 -0.014579833 6895629
-0.042900968 0.039589405 -0.014781177 7027473
-0.041774239 0.040465698 -0.014035821 7158554
-0.040548783 0.041019976 -0.014237463 7357476
-0.039323334 0.04157424 -0.014439106 7619862
-0.038281586 0.042778775 -0.012749076 7685896
-0.037052695 0.043334603 -0.012951314 7816966
-0.035912234 0.04421711 -0.012208223 8014340
-0.034855038 0.045428663 -0.010520697 8210178
-0.033621006 0.045986816 -0.01072371 8078593
-0.03238697 0.046544969 -0.010926723 7947283
-0.031152934 0.047103122 -0.011129797 8011814
-0.029998738 0.047991842 -0.01038897 8077337
-0.028762985 0.04855077 -0.010592341 7881484
-0.027527239 0.049109697 -0.010795653 7749896
-0.02629149 0.049668625 -0.010998964 7618309
-0.025201682 0.050894931 -0.009316802 7551502
-0.023962501 0.051455408 -0.0095207095 7551767
-0.022723317 0.052015886 -0.009724617 7552028
-0.021551955 0.052912369 -0.0089865923 7618082
-0.020311061 0.053473622 -0.0091907382 7684118
-0.01907016 0.054034889 -0.0093948841 7684619
-0.017954603 0.055272803 -0.007717073 7751433
-0.01671027 0.055835605 -0.0079218149 7751944
-0.015525185 0.056738302 -0.0071860552 7816469
-0.014279135 0.057301894 -0.0073910952 7815969
-0.013144709 0.058548376 -0.0057162642 7881497
-0.011895224 0.059113517 -0.0059218407 7881488
-0.010698117 0.060021639 -0.0051881075 7881486
-0.0094469227 0.060587555 -0.0053939819 7553805
-0.0081957243 0.061153471 -0.0055997968 7225865
-0.0069445297 0.061719388 -0.0058056712 7094790
-0.0057843514 0.062977493 -0.0041351914 6961672
-0.004529722 0.063544959 -0.0043416023 6961930
-0.0032750927 0.064112425 -0.0045480132 6960909
-0.0020204671 0.064679891 -0.0047544837 6829584
-0.000765834 0.065247357 -0.0049608946 6763789
0.00045186281 0.066164821 -0.0042304397 6960394
0.0017082095 0.066733062 -0.0044371486 7221781
0.0029645525 0.067301303 -0.0046438575 7287073
0.0042208992 0.067869544 -0.0048505664 7353380
0.0054772459 0.068437785 -0.0050572753 7223590
0.0067335926 0.069006026 -0.0052639842 7158043
0.0079899393 0.069574296 -0.0054706931 7158289
0.0092462823 0.070142537 -0.005677402 7158030
0.010502629 0.070710778 -0.0058841109 7223308
0.011758976 0.071279019 -0.0060908198 7354888
0.013015319 0.07184726 -0.0062975287 7224324
0.014271665 0.072415501 -0.0065042377 7158289
0.015528012 0.072983742 -0.0067109466 7223838
0.016784359 0.073551983 -0.0069176555 7354906
0.018040705 0.074120224 -0.0071243644 7418647
0.019297048 0.074688464 -0.0073310733 7550988
0.020553391 0.075256705 -0.0075377822 7551745
0.021809738 0.075824946 -0.0077444911 7551235
0.023066085 0.076393187 -0.0079512 7483654
0.024313796 0.077690899 -0.006295085 7485449
0.02556837 0.078991711 -0.0046399832 7618316
0.026831578 0.079563051 -0.0048478246 7814417
0.028094787 0.080134422 -0.005055666 7879447
0.029358003 0.080705762 -0.0052635074 7944976
0.030621212 0.081277102 -0.0054713488 7943689
0.031884421 0.081848443 -0.0056791902 8008722
0.033147637 0.082419813 -0.0058870316 7811868
0.034420256 0.083362073 -0.0051657557 7680016
0.035685185 0.083934188 -0.0053738356 7351813
0.036950115 0.084506333 -0.005581975 7089413
0.03825872 0.086198241 -0.0030052066 6760710
0.03956135 0.087520808 -0.0013580322 6498841
0.040834863 0.088096827 -0.0015675426 6433836
0.042128075 0.089048415 -0.00084966421 6433564
0.043403301 0.08962518 -0.0010594726 6433036
0.044678528 0.090201974 -0.0012692809 6500107
0.045953754 0.090778738 -0.0014790893 6632203
0.047228981 0.091355532 -0.0016888976 6828556
0.048504207 0.091932327 -0.001898706 6958350
0.049779434 0.092509091 -0.0021085143 7092233
0.051054653 0.093085885 -0.0023183227 7028997
0.052329879 0.093662649 -0.0025281906 7029012
0.053605106 0.094239444 -0.002737999 6897956
0.054880332 0.094816208 -0.0029478073 6767124
-0.051721442 0.035910308 -0.01663518 6505240
-0.050832372 0.037418455 -0.013991475 6439937
-0.049608637 0.037971944 -0.01419282 6371074
-0.048384894 0.038525432 -0.014394164 6370819
-0.047161158 0.039078936 -0.014595509 6370822
-0.04604039 0.039954513 -0.013849854 6436873
-0.044814948 0.040508792 -0.014051497 6502920
-0.043589506 0.041063055 -0.014253139 6633991
-0.042364042 0.041617319 -0.014454782 6830863
-0.041138593 0.042171597 -0.014656365 6963479
-0.040101919 0.043377802 -0.01296699 7095053
-0.038965706 0.044260383 -0.012223959 7357187
-0.037735116 0.044816971 -0.012426436 7554050
-0.036504511 0.045373574 -0.012628913 7752705
-0.035448972 0.046588361 -0.010942519 7949313
-0.03421494 0.047146499 -0.011145592 7882753
-0.033064995 0.048035294 -0.010404825 7816225
-0.031829249 0.048594207 -0.010608137 7881281
-0.0305935 0.049153149 -0.010811448 7946535
-0.029357746 0.049712062 -0.01101476 7815181
-0.028276462 0.050938487 -0.0093326569 7683850
-0.027037278 0.051498979 -0.0095365644 7618312
-0.025798094 0.052059457 -0.0097404122 7551758
-0.024558913 0.052619934 -0.0099443197 7617812
-0.023390096 0.053517252 -0.009206593 7618587
-0.022149194 0.054078504 -0.0094107985 7684642
-0.0209083 0.054639757 -0.0096149445 7685147
-0.019797828 0.055879354 -0.0079377294 7750933
-0.018553495 0.056442171 -0.0081424117 7818257
-0.017309163 0.057004973 -0.0083471537 7817230
-0.0161249 0.05790928 -0.0076120496 7817000
-0.01487885 0.058472872 -0.0078170896 7816514
-0.013632804 0.059036449 -0.0080220699 7816236
-0.012496591 0.060287714 -0.0063489676 7684886
-0.01130031 0.06119746 -0.0056158304 7618833
-0.010049116 0.061763376 -0.0058217049 7290381
-0.0087979175 0.062329292 -0.0060275197 7027721
-0.0076428279 0.063589066 -0.004357636 7027205
-0.0063881986 0.064156532 -0.0045640469 7026693
-0.0051335692 0.064723998 -0.0047705173 6960901
-0.0038789399 0.065291464 -0.0049769282 6960909
-0.0026243106 0.06585893 -0.0051833391 6895125
-0.0013696812 0.066426396 -0.0053898096 6829323
-0.00015280768 0.06734547 -0.0046598911 7025921
0.001103539 0.067913711 -0.0048666 7222032
0.002359882 0.068481952 -0.0050733089 7352607
0.0036162287 0.069050193 -0.0052800179 7484713
0.0048725754 0.069618464 -0.0054867268 7288372
0.0061289221 0.070186704 -0.0056934357 7157794
0.0073852651 0.070754945 -0.0059001446 7157521
0.008590132 0.07203722 -0.0042384863 7157261
0.0098979585 0.071891427 -0.0063135624 7485449
0.011154305 0.072459668 -0.0065202713 7748104
0.012410648 0.073027909 -0.0067269802 7551239
0.013666995 0.07359615 -0.0069336891 7420193
0.014923338 0.074164391 -0.007140398 7420731
0.016179685 0.074732631 -0.0073471069 7486764
0.017436031 0.075300872 -0.0075538158 7551262
0.018692378 0.075869113 -0.0077605247 7615759
0.019928135 0.077165365 -0.0061039329 7551233
0.021205071 0.077005595 -0.0081739426 7551489
0.022447694 0.078304976 -0.0065184832 7617025
0.023697179 0.079607487 -0.0048639774 7748358
0.024960395 0.080178827 -0.0050718188 7813388
0.026223604 0.080750167 -0.0052796602 7878675
0.02748682 0.081690162 -0.00455755 7878938
0.028751742 0.082262307 -0.0047656894 7944973
0.030016672 0.082834423 -0.0049737692 8076033
0.031281602 0.083406538 -0.0051819086 8136713
0.032546524 0.083978653 -0.005390048 7812881
0.033811454 0.084550798 -0.0055981278 7551753
0.035076384 0.085122913 -0.0058062673 7222529
0.036341313 0.085695028 -0.0060144067 6893318
0.037633706 0.08701691 -0.0043671131 6564108
0.03894842 0.08871761 -0.0017933846 6169107
0.040239092 0.089670032 -0.0010757446 6171162
0.041514318 0.090246797 -0.001285553 6171157
0.042789545 0.090823591 -0.0014954209 6236945
0.044064771 0.091400355 -0.0017052293 6369808
0.045339998 0.091977149 -0.0019150376 6500879
0.046615217 0.092553943 -0.002124846 6631698
0.047890443 0.093130708 -0.0023346543 6829845
0.04916567 0.093707502 -0.0025444627 7028236
0.050440896 0.094284266 -0.002754271 6897156
0.051716123 0.09486106 -0.0029640794 6831897
-0.052420314 0.037375301 -0.016103983 6047756
-0.051421348 0.038568452 -0.014409781 5982465
-0.050197612 0.039121956 -0.014611125 5980929
-0.04897387 0.039675444 -0.014812469 5979650
-0.047855649 0.040551871 -0.014067173 5978890
-0.046630193 0.041106135 -0.014268816 6043923
-0.045404751 0.041660413 -0.014470398 6108939
-0.044179309 0.042214677 -0.014672041 6305284
-0.042953845 0.04276894 -0.014873683 6503944
-0.041728396 0.043323219 -0.015075326 6569484
-0.040788595 0.044860244 -0.012442172 6635015
-0.03955799 0.045416832 -0.012644649 6966275
-0.038327392 0.045973435 -0.012847126 7359758
-0.037276935 0.047189891 -0.011161327 7491354
-0.036042903 0.047748044 -0.0113644 7686926
-0.034895506 0.048637658 -0.010623932 7686914
-0.033659752 0.049196586 -0.010827243 7686930
-0.032424007 0.049755514 -0.011030555 7752482
-0.031188261 0.050314441 -0.011233866 7814684
-0.029952507 0.050873369 -0.011437237 7749654
-0.028872874 0.052103013 -0.0097562671 7683859
-0.027633689 0.052663505 -0.0099601746 7618321
-0.026394505 0.053223982 -0.010164082 7618836
-0.025228228 0.054122135 -0.0094266534 7684887
-0.023987334 0.054683384 -0.0096307993 7749922
-0.022746433 0.055244654 -0.0098350048 7752237
-0.02164105 0.056485921 -0.0081583261 7751966
-0.020396717 0.057048723 -0.0083630681 7817488
-0.019152384 0.057611525 -0.0085678101 7882765
-0.017970659 0.058516681 -0.007833004 7882763
-0.016724616 0.059080258 -0.008038044 7882778
-0.015478566 0.05964385 -0.0082430243 7817256
-0.014347445 0.060896784 -0.006570518 7750938
-0.013097961 0.061461926 -0.0067760944 7553805
-0.011902507 0.062373281 -0.0060435534 7420941
-0.01075593 0.063633174 -0.0043736696 7092237
-0.0095013045 0.06420064 -0.0045801401 6830349
-0.0082466751 0.064768106 -0.004786551 6961678
-0.0069920458 0.065335572 -0.0049929619 7157774
-0.0057374127 0.065903038 -0.0051993728 7026191
-0.0044827871 0.066470504 -0.0054058433 6960155
-0.0032281578 0.06703797 -0.0056122541 6959654
-0.0019735284 0.067605436 -0.005818665 6959897
-0.00071889535 0.068172902 -0.0060251355 7091725
0.00053573027 0.068740368 -0.0062315464 7221777
0.0017552115 0.069662631 -0.00550282 7418133
0.0030115545 0.070230871 -0.0057095289 7615515
0.0042679049 0.070799112 -0.0059162378 7417632
0.0055242479 0.071367353 -0.0061229467 7221525
0.0067805946 0.071935594 -0.0063296556 7222281
0.0079838075 0.073221117 -0.0046691298 7222793
0.0092932843 0.073072076 -0.0067430735 7682056
0.010549631 0.073640317 -0.0069497824 8206598
0.011805978 0.074208558 -0.0071564913 7943428
0.013062324 0.074776798 -0.0073632002 7682840
0.014318667 0.075345039 -0.0075699091 7618348
0.015575014 0.07591328 -0.007776618 7618081
0.016831361 0.076481521 -0.0079833269 7618071
0.018087704 0.077049762 -0.0081900358 7682829
0.01932181 0.078349262 -0.0065345764 7616514
0.020581592 0.078919053 -0.0067418814 7617028
0.021841366 0.079488844 -0.0069491267 7814406
0.023089204 0.080794573 -0.0052958131 8010514
0.024348158 0.081734627 -0.0045737028 7944223
0.025613088 0.082306772 -0.0047818422 7943965
0.026878018 0.082878888 -0.0049899817 7943707
0.02814294 0.083451003 -0.0051980615 8010520
0.02940787 0.084023148 -0.0054062009 8143125
0.0306728 0.084595263 -0.0056143403 8338959
0.031949814 0.085914165 -0.0039659142 7879434
0.033202652 0.085739493 -0.0060305595 7421189
0.034467582 0.086311638 -0.006238699 7094017
0.035732511 0.086883754 -0.0064468384 6763529
0.037036162 0.088585377 -0.0038735867 6301970
0.038335484 0.089914382 -0.0022287369 5908757
0.039625335 0.090868413 -0.001511693 5908759
0.040900562 0.091445208 -0.0017215014 5909266
0.042175788 0.092021972 -0.0019313097 6106382
0.043451015 0.092598766 -0.0021411777 6304529
0.044726241 0.09317553 -0.002350986 6369812
0.046001468 0.093752325 -0.0025607944 6500383
0.048551913 0.094905883 -0.0029804111 6961692
-0.052010324 0.039718464 -0.014828146 5917441
-0.050786588 0.040271968 -0.01502949 5917697
-0.049562845 0.040825456 -0.015230834 5916673
-0.048445452 0.041703492 -0.014486074 5981455
-0.047219995 0.042257756 -0.014687717 6047006
-0.045994554 0.042812034 -0.014889359 6178063
-0.044769112 0.043366298 -0.015091002 6243073
-0.043543648 0.043920562 -0.015292585 6373889
-0.042513717 0.045131683 -0.013604999 6307841
-0.041380879 0.046016693 -0.012862861 6240770
-0.040150274 0.046573296 -0.013065338 6439684
-0.038919676 0.047129899 -0.013267815 6638875
-0.037870865 0.048349574 -0.011583209 6835251
-0.036636841 0.048907727 -0.011786222 7097115
-0.035490263 0.049798965 -0.01104635 7162115
-0.034254514 0.050357893 -0.011249721 7294723
-0.033018768 0.050916821 -0.011453032 7423235
-0.031783018 0.051475734 -0.011656344 7486481
-0.030708466 0.052707061 -0.0099760294 7486240
-0.029469285 0.053267539 -0.010179937 7420701
-0.028230101 0.053828031 -0.010383785 7487514
-0.027066369 0.054727018 -0.0096466541 7487514
-0.025825467 0.05528827 -0.0098508596 7684634
-0.024584569 0.055849522 -0.010055006 7815977
-0.023343667 0.056410789 -0.010259211 7749688
-0.022239938 0.057655275 -0.0085837245 7618081
-0.020995606 0.058218092 -0.0087884665 7685387
-0.019751273 0.058780894 -0.0089932084 7686410
-0.018570375 0.059687659 -0.0082589388 7685385
-0.017324332 0.060251236 -0.0084639788 7748876
-0.016078282 0.060814828 -0.0086690187 7683343
-0.014948811 0.062070996 -0.0069976449 7618057
-0.013699327 0.062636137 -0.0072032213 7486724
-0.012504701 0.063549101 -0.0064712763 7354377
-0.011359777 0.064812213 -0.0048025846 7157518
-0.010105148 0.065379679 -0.0050089955 6960658
-0.0088505186 0.065947145 -0.005215466 7026967
-0.0075958893 0.066514611 -0.0054218769 7158040
-0.0063412599 0.067082077 -0.0056282878 7025434
-0.0050866343 0.067649543 -0.0058347583 6893609
-0.0038320012 0.068217009 -0.0060411692 6828088
-0.0025773756 0.068784475 -0.0062475801 6762792
-0.0013227426 0.069351941 -0.0064539909 6960153
-6.8116933e-05 0.069919407 -0.0066604614 7156242
0.0011865161 0.070486873 -0.0068668723 7287564
0.0024411455 0.071054339 -0.0070732832 7418892
0.0036632307 0.071979761 -0.0063457489 7286797
0.0049195774 0.072548002 -0.0065524578 7155975
0.0061759241 0.073116243 -0.0067591667 7091970
0.0074322671 0.073684484 -0.0069658756 7027717
0.0086886138 0.074252725 -0.0071725845 7420424
0.0099449567 0.074820966 -0.0073792934 7878660
0.011201303 0.075389206 -0.0075860023 7813889
0.01245765 0.075957447 -0.0077927113 7749135
0.013713997 0.076525688 -0.0079994202 7749149
0.014970344 0.077093929 -0.0082061291 7749655
0.016195931 0.078393549 -0.0065507293 7749137
0.017455708 0.078963339 -0.0067579746 7748618
0.018715486 0.07953313 -0.0069652796 7617284
0.019975264 0.08010295 -0.0071725249 7551752
0.021235045 0.080672741 -0.0073798299 7879692
0.022481229 0.081981689 -0.0057276487 8207391
0.023739357 0.082923353 -0.0050061345 8075314
0.025004286 0.083495498 -0.0052142739 8009511
0.026265915 0.084811389 -0.003564775 7943964
0.02753428 0.085385084 -0.0037734509 7945250
0.028802637 0.085958749 -0.0039821863 7946025
0.030070994 0.086532414 -0.0041908622 8012566
0.031339359 0.087106109 -0.004399538 7555331
0.032607716 0.087679774 -0.0046082139 7163650
0.03387608 0.088253438 -0.0048168898 6901505
0.035144437 0.088827133 -0.0050256252 6639629
0.036424879 0.08977893 -0.0043077469 6307353
0.037722554 0.091111183 -0.0026640892 6040855
0.039011579 0.092066824 -0.0019476414 5779733
0.040286805 0.092643589 -0.0021574497 5584400
0.041562032 0.093220383 -0.0023672581 5845259
0.042878587 0.09456116 -0.00072669983 6108434
0.044112477 0.094373941 -0.0027869344 6238745
-0.051375564 0.04142198 -0.015447855 5852673
-0.050260719 0.04230085 -0.014703393 5918465
-0.049035255 0.042855114 -0.014905035 6049288
-0.047809806 0.043409377 -0.015106678 6114831
-0.046584357 0.043963656 -0.015308261 6245640
-0.045358915 0.044517919 -0.015509903 6245633
-0.044133451 0.045072198 -0.015711546 6244609
-0.042908002 0.045626462 -0.015913129 6047233
-0.041682553 0.046180725 -0.016114771 5914370
-0.04074255 0.04772976 -0.013486028 5911042
-0.039698835 0.048951119 -0.011802018 5976593
-0.038464796 0.049509272 -0.012005091 6238751
-0.037320774 0.05040133 -0.011265516 6504977
-0.036085028 0.050960258 -0.011468828 6703106
-0.034849275 0.051519185 -0.011672139 6963976
-0.033613529 0.052078113 -0.011875451 7094030
-0.032544058 0.05331111 -0.010195732 7224082
-0.031304877 0.053871587 -0.01039964 7224086
-0.030065697 0.054432064 -0.010603547 7224087
-0.028904501 0.055331901 -0.0098667145 7291161
-0.027663607 0.055893153 -0.01007086 7422230
-0.026422706 0.056454405 -0.010275066 7684372
-0.025327493 0.057699025 -0.0085996389 7946270
-0.024083164 0.058261842 -0.0088043809 7749416
-0.022838827 0.058824643 -0.0090091228 7553050
-0.021594498 0.059387445 -0.0092138648 7553292
-0.020350162 0.059950262 -0.0094185472 7553289
-0.019170091 0.060858637 -0.0086849332 7553542
-0.017924048 0.061422199 -0.0088899732 7617545
-0.016677998 0.061985791 -0.0090949535 7551757
-0.015550181 0.063245177 -0.0074247718 7486472
-0.014300697 0.063810319 -0.0076304078 7421186
-0.013106894 0.064724922 -0.0068989992 7354631
-0.011963621 0.065991253 -0.0052314997 7222540
-0.010708995 0.066558719 -0.0054379106 7157013
-0.0094543658 0.067126185 -0.0056443214 7157789
-0.0081997365 0.067693651 -0.0058507919 7156247
-0.0069451071 0.068261117 -0.0060572028 7023889
-0.0056904778 0.068828583 -0.0062636137 6893083
-0.0044358484 0.069396049 -0.0064700842 6696485
-0.0031812191 0.069963515 -0.0066764951 6565916
-0.0019265898 0.070530981 -0.006882906 6829843
-0.00067196041 0.071098447 -0.0070893168 7090190
0.00058266893 0.071665913 -0.0072957873 7155209
0.0018372983 0.072233379 -0.0075021982 7221000
0.0030585565 0.07316041 -0.0067752004 7155975
0.0043149032 0.073728651 -0.0069819093 7156228
0.0055712499 0.074296892 -0.0071886182 6961921
0.0068275966 0.074865133 -0.0073953271 6831877
0.0080839396 0.075433373 -0.007602036 7226632
0.0093402863 0.076001614 -0.0078087449 7617289
0.010550495 0.077298254 -0.0061522722 7683081
0.011810273 0.077868044 -0.0063595176 7814171
0.013109323 0.077706367 -0.0084288716 7879981
0.014329828 0.079007626 -0.0067740679 7945505
0.015589606 0.079577446 -0.0069813728 7880213
0.016849387 0.080147237 -0.0071886182 7813907
0.018109161 0.080717027 -0.0073959231 7618577
0.019368943 0.081286818 -0.0076031685 7487251
0.020610038 0.082597435 -0.005951643 7945749
0.021865632 0.083539963 -0.0052304268 8469021
0.023130555 0.084112078 -0.0054385662 8271909
0.024395484 0.084684193 -0.0056467056 8075290
0.025655467 0.086003333 -0.0039983988 8010000
0.026923824 0.086577028 -0.0042070746 7945494
0.028192181 0.087150693 -0.0044157505 7814685
0.029460546 0.087724358 -0.0046244264 7685647
0.030733291 0.088674664 -0.0039060712 7294466
0.03199726 0.088871717 -0.0050418377 6967809
0.033265624 0.089445412 -0.0052505136 6772225
0.034533981 0.090019077 -0.0054591894 6575623
0.037109617 0.092307955 -0.0030994415 6179340
0.038397823 0.093265206 -0.0023835897 5717259
0.039673042 0.093842 -0.0025933981 5322763
0.040948268 0.094418764 -0.0028032064 5647372
-0.050850522 0.043452471 -0.015122294 5918977
-0.049625058 0.044006735 -0.015323937 5984769
-0.048399609 0.044560999 -0.015525579 6050049
-0.047174159 0.045115277 -0.015727222 6115585
-0.045948718 0.045669541 -0.015928805 6114561
-0.044723254 0.046223819 -0.016130447 6115073
-0.043497805 0.046778083 -0.01633209 5982722
-0.042272355 0.047332346 -0.016533732 5850369
-0.041334834 0.048886225 -0.013906717 5849345
-0.040387031 0.050444782 -0.011281312 5913862
-0.039151285 0.051003709 -0.011484623 5978892
-0.038097199 0.052233726 -0.0098038316 6109703
-0.036858026 0.052794185 -0.010007739 6305794
-0.035618838 0.053354681 -0.010211587 6501901
-0.034379654 0.053915158 -0.010415494 6633497
-0.033140469 0.054475632 -0.010619402 6830867
-0.031983539 0.055375531 -0.0098825693 6896397
-0.030742642 0.055936784 -0.010086775 7027474
-0.02950174 0.056498036 -0.010290921 7159064
-0.028260846 0.057059288 -0.010495067 7290643
-0.027019944 0.057620555 -0.010699272 7487247
-0.025926378 0.058868393 -0.0090250373 7749396
-0.024682049 0.059431195 -0.0092297792 7618585
-0.023507956 0.060338855 -0.0084958673 7487763
-0.022261903 0.060902447 -0.0087008476 7422222
-0.021015856 0.061466008 -0.0089058876 7421704
-0.019769806 0.0620296 -0.0091109276 7355651
-0.018523764 0.062593192 -0.009315908 7355399
-0.017277714 0.063156784 -0.0095209479 7420172
-0.016151547 0.064419389 -0.0078519583 7419142
-0.014902063 0.06498453 -0.0080575347 7419649
-0.013652582 0.065549672 -0.0082631111 7485958
-0.012457892 0.06646663 -0.0075325966 7287563
-0.011206694 0.067032546 -0.007738471 7157015
-0.010058213 0.068305224 -0.0060732365 7157028
-0.00880358 0.06887269 -0.0062796474 7154966
-0.0075489543 0.069440156 -0.0064861178 7024137
-0.006294325 0.070007622 -0.0066925287 6893326
-0.0050396957 0.070575088 -0.0068989396 6762259
-0.0037850663 0.071142554 -0.0071054101 6696720
-0.002530437 0.07171002 -0.007311821 6827534
-0.0012758076 0.072277486 -0.0075182319 6958602
-2.1178275e-05 0.072844952 -0.0077246428 7023623
0.0012334548 0.073412418 -0.0079311132 7151620
0.002453886 0.074341059 -0.0072047114 7220737
0.0037102327 0.074909329 -0.0074114203 7287553
0.0049665757 0.07547757 -0.0076181293 7224065
0.0061648339 0.076772749 -0.0059611201 7226117
0.0074792691 0.076614052 -0.0080315471 7421961
0.008684393 0.077912331 -0.0063756704 7683597
0.009944167 0.078482121 -0.0065829158 7814930
0.011203948 0.079051912 -0.0067902207 7880744
0.012463726 0.079621732 -0.0069974661 7945790
0.013723504 0.080191523 -0.007204771 7945772
0.014949221 0.081499159 -0.0055521131 7880218
0.016212434 0.0820705 -0.0057599545 7879452
0.017475642 0.08264187 -0.0059677958 7747614
0.018738855 0.08321321 -0.0061756372 7615774
0.020002063 0.08378455 -0.0063834786 7877918
0.021256823 0.084728688 -0.0056628585 8205851
0.022521753 0.085300803 -0.0058709979 8074520
0.023776647 0.086621612 -0.0042232871 7943438
0.025041711 0.087570429 -0.0035043359 7944452
0.026311789 0.088144869 -0.0037133098 7945738
0.027581859 0.088719308 -0.0039222836 7749905
0.028855633 0.090048701 -0.0022776127 7620873
0.030132707 0.091002911 -0.0015606284 7295489
0.031392094 0.090442687 -0.0045492053 6970113
0.032662164 0.091017127 -0.0047581792 6773249
0.033923525 0.091211021 -0.0058928132 6576641
0.036496688 0.093504727 -0.0035347939 6315265
0.037784059 0.094463617 -0.0028195381 5983489
-0.040981788 0.051606074 -0.01170373 5850628
-0.039746042 0.052165002 -0.011907041 5783559
-0.038785275 0.053735375 -0.0092859268 5715972
-0.037544373 0.054296643 -0.0094901323 5846530
-0.036303472 0.054857895 -0.0096942782 6042890
-0.03506257 0.055419147 -0.0098984838 6240274
-0.033821676 0.055980414 -0.01010263 6502415
-0.032746926 0.057223707 -0.0084267259 6633741
-0.031502593 0.057786524 -0.0086314678 6830356
-0.030258264 0.058349326 -0.0088362098 6961436
-0.029013935 0.058912143 -0.0090409517 7158804
-0.027769603 0.059474945 -0.0092456937 7356428
-0.02652527 0.060037762 -0.009450376 7552786
-0.025280941 0.060600549 -0.009655118 7488280
-0.024107672 0.061509818 -0.008921802 7422486
-0.022792276 0.061726183 -0.010064602 7356692
-0.021547943 0.062289 -0.010269344 7290381
-0.020369522 0.063200593 -0.0095368624 7224070
-0.01912348 0.063764155 -0.0097419024 7158022
-0.018002395 0.065028459 -0.0080735087 7288839
-0.016752917 0.0655936 -0.0082790852 7419140
-0.015503433 0.066158742 -0.0084846616 7484673
-0.01431128 0.067076534 -0.0077544451 7615240
-0.013060085 0.06764245 -0.0079603195 7418383
-0.011916686 0.068916798 -0.0062957406 7221780
-0.01066206 0.069484264 -0.0065021515 7222041
-0.0094074272 0.07005173 -0.0067085624 7221519
-0.0081527978 0.070619196 -0.0069149733 7024645
-0.0068981722 0.071186662 -0.0071214437 6892809
-0.0056435429 0.071754128 -0.0073278546 6892302
-0.0043889135 0.072321594 -0.0075342655 6892044
-0.0031342804 0.07288906 -0.007740736 6826507
-0.0018796548 0.073456526 -0.0079471469 6826504
-0.00062502176 0.074023992 -0.0081535578 6957573
0.00062960759 0.074591458 -0.0083599687 7088643
0.0018842369 0.075158924 -0.0085664392 7285506
0.0031055622 0.076089978 -0.0078408718 7484168
0.0043619052 0.076658219 -0.0080475807 7551758
0.0056182519 0.07722646 -0.0082542896 7617804
0.0068745948 0.077794701 -0.0084609985 7683850
0.0080780648 0.079096228 -0.006806314 7815435
0.0093378462 0.079666018 -0.0070135593 7882763
0.010597624 0.080235809 -0.0072208643 8012058
0.011857402 0.0808056 -0.0074281096 8011562
0.013078034 0.082114935 -0.0057761073 8011044
0.014341246 0.082686275 -0.0059839487 7946526
0.015604455 0.083257616 -0.0061917901 7944479
0.016853243 0.084201008 -0.0054709315 7878688
0.018118169 0.084773153 -0.0056790709 7812387
0.019383099 0.085345268 -0.0058871508 7877926
0.020648021 0.085917383 -0.0060952902 7943712
0.021897834 0.087239861 -0.0044481754 7877147
0.023166198 0.087813556 -0.0046569109 7812110
0.02442218 0.089517474 -0.0020843744 7879170
0.025695685 0.090093493 -0.0022938848 7945747
0.026969198 0.090669483 -0.0025033951 7750692
0.028243724 0.091624528 -0.0017867684 7553559
0.029518951 0.092201322 -0.0019965768 7231242
0.030789722 0.092397511 -0.0031319857 6969093
0.032063227 0.0929735 -0.0033415556 6772737
-0.039567474 0.055579036 -0.007828474 5715458
-0.038323138 0.056141838 -0.008033216 5780738
-0.037078816 0.056704655 -0.0082378983 5780743
-0.03583448 0.057267457 -0.0084426403 6042892
-0.034590147 0.057830274 -0.0086473823 6239500
-0.033345815 0.058393076 -0.0088521242 6369805
-0.032101482 0.058955893 -0.0090568662 6500374
-0.030857153 0.059518695 -0.0092616081 6697760
-0.029612824 0.060081512 -0.0094662905 6960917
-0.028368492 0.060644299 -0.0096710324 7092490
-0.027199481 0.061553627 -0.0089377761 7289873
-0.025953434 0.062117219 -0.0091427565 7289624
-0.024707388 0.062680811 -0.0093477964 7355161
-0.023461334 0.063244402 -0.0095527768 7223322
-0.022215288 0.063807964 -0.0097578168 7091473
-0.020969238 0.064371556 -0.0099628568 7091721
-0.019723196 0.064935148 -0.010167837 7091973
-0.018477146 0.065498739 -0.010372877 7156994
-0.017231099 0.066062301 -0.010577857 7287298
-0.016104799 0.067332923 -0.0089117885 7287810
-0.014855318 0.067898065 -0.0091173649 7351818
-0.013605844 0.068463206 -0.0093229413 7155987
-0.012411084 0.069384187 -0.0085939169 6959632
-0.011159886 0.069950104 -0.0087997913 7025166
-0.009908691 0.07051602 -0.0090056062 7091208
-0.008756645 0.071798235 -0.0073438883 7023618
-0.0075020157 0.072365701 -0.0075502992 6891269
-0.0062473863 0.072933167 -0.0077567697 6826505
-0.004992757 0.073500633 -0.0079631805 6760969
-0.0037381276 0.074068099 -0.0081695914 6630153
-0.0024834983 0.074635565 -0.0083760619 6500102
-0.001228869 0.075203031 -0.0085824728 6762499
2.5760382e-05 0.075770497 -0.0087888837 7024899
0.0012803897 0.076337963 -0.0089952946 7221763
0.002500888 0.077270627 -0.0082703829 7484431
0.0037572347 0.077838868 -0.0084770918 7616540
0.0049521849 0.079140514 -0.0068224072 7813908
0.0062119626 0.079710305 -0.0070297122 7814412
0.007471744 0.080280095 -0.0072369576 7816456
0.0086804219 0.08158797 -0.0055844784 7881733
0.0099436343 0.08215934 -0.0057922602 7881485
0.011206847 0.082730681 -0.0060001016 7945750
0.012470055 0.083302021 -0.006207943 7945500
0.013733268 0.083873361 -0.0064157844 7944738
0.014979511 0.084817618 -0.0056952238 8009762
0.016244441 0.085389733 -0.0059033632 7943970
0.017509367 0.085961878 -0.006111443 7878184
0.018774293 0.086533993 -0.0063195825 7877935
0.020039219 0.087106109 -0.0065277219 7878182
0.021287378 0.088431835 -0.0048817992 7681310
0.022549074 0.089383096 -0.0041637421 7484431
0.023804288 0.091092587 -0.0015932322 7550721
0.025079515 0.091669381 -0.0018030405 7683612
0.026351701 0.093005985 -0.00016099215 7486776
0.027630363 0.093584299 -0.00037139654 7355430
0.028909016 0.094162643 -0.00058174133 7096084
0.030187678 0.094740987 -0.00079214573 6902282
0.031450298 0.094170302 -0.0037769079 6706689
-0.04025967 0.057088763 -0.0073135495 5782785
-0.039013628 0.057652354 -0.0075185895 5648641
-0.037767578 0.058215931 -0.0077236295 5584388
-0.036433373 0.058436826 -0.0088680387 5781254
-0.035189036 0.058999628 -0.0090727806 6042886
-0.034029432 0.059906691 -0.0083386302 6106631
-0.032783389 0.060470283 -0.0085436702 6172442
-0.031456042 0.060688049 -0.0096869469 6435117
-0.030211713 0.061250865 -0.0098916888 6764063
-0.028967381 0.061813682 -0.010096431 6895122
-0.027799197 0.06272462 -0.0093637109 7092245
-0.02655315 0.063288212 -0.0095687509 7158296
-0.025307104 0.063851774 -0.0097737312 7288854
-0.02406105 0.064415365 -0.0099787712 7091733
-0.022953566 0.065681458 -0.0083110332 6895117
-0.021704089 0.066246599 -0.0085166097 6960646
-0.020454612 0.06681174 -0.0087221861 7025668
-0.019205127 0.067376852 -0.0089277625 7090947
-0.01795565 0.067941993 -0.0091333389 7156483
-0.016706165 0.068507135 -0.0093389153 7156483
-0.015456688 0.069072276 -0.0095444918 7155977
-0.014264472 0.069994092 -0.0088157654 6959120
-0.013013277 0.070560008 -0.0090216398 6762765
-0.011762083 0.071125925 -0.0092275143 6893835
-0.010615122 0.072409809 -0.0075663924 7025414
-0.0093604885 0.072977275 -0.0077728033 6957313
-0.0081058629 0.073544741 -0.0079792142 6957827
-0.0068512335 0.074112207 -0.0081856847 6827525
-0.0055966042 0.074679673 -0.0083920956 6696197
-0.0043419711 0.075247169 -0.0085985065 6433797
-0.0030873455 0.075814605 -0.0088049173 6173446
-0.0018327124 0.076382101 -0.0090113878 6567944
-0.00057808682 0.076949537 -0.0092177987 6960141
0.00067654625 0.077517033 -0.0094242096 7222034
0.0019311719 0.078084469 -0.0096306205 7549988
0.0031858012 0.078651965 -0.009837091 7747127
0.0044404306 0.079219401 -0.010043502 8010023
0.0056652538 0.080155998 -0.0093200207 7945240
0.0069215968 0.080724239 -0.0095267296 7879952
0.0081251971 0.082033783 -0.0078749061 7814665
0.0093849748 0.082603574 -0.0080821514 7814670
0.010598872 0.083917797 -0.0064319372 7880211
0.011862081 0.084489137 -0.0066397786 7945753
0.013125289 0.085060477 -0.00684762 8010272
0.01437071 0.086006343 -0.0061276555 8075044
0.015635636 0.086578459 -0.0063357353 8008487
0.016900565 0.087150574 -0.0065438747 7943208
0.018165492 0.087722719 -0.0067520142 7877929
0.019430418 0.088294834 -0.0069601536 7812389
0.020676922 0.089623779 -0.0053153634 7484705
0.021922801 0.091335028 -0.0027455091 7157021
0.023178976 0.093050927 -0.00017732382 7288089
0.024457637 0.093629271 -0.00038772821 7484730
0.025731605 0.094970614 0.0012524724 7288155
-0.040859383 0.05825974 -0.0077395439 5787393
-0.039798182 0.059508875 -0.0060656667 5653249
-0.038548704 0.060074002 -0.0062712431 5519361
-0.03712124 0.059950501 -0.0083546042 5650177
-0.035875197 0.060514092 -0.0085595846 5780993
-0.034629147 0.061077654 -0.0087646246 5977601
-0.033383105 0.061641246 -0.008969605 6108958
-0.032137055 0.062204838 -0.0091746449 6370875
-0.030810606 0.062420219 -0.010317087 6633002
-0.029644959 0.063332021 -0.0095846653 6764314
-0.028398912 0.063895583 -0.0097897053 6959385
-0.027152866 0.064459175 -0.0099946856 6893848
-0.02590682 0.065022767 -0.010199726 6894100
-0.024660766 0.065586358 -0.010404706 6763025
-0.02341472 0.06614992 -0.010609746 6697738
-0.022305459 0.067420781 -0.0089437366 6763011
-0.020922627 0.067277104 -0.011019766 6828291
-0.019806497 0.068551064 -0.009354949 6893828
-0.01855702 0.069116205 -0.0095605254 7024900
-0.017307535 0.069681346 -0.0097661018 7090948
-0.016058054 0.070246488 -0.0099716783 7222537
-0.014866665 0.071169913 -0.0092434883 7091214
-0.01361547 0.071735829 -0.0094493628 6959883
-0.012364276 0.072301716 -0.0096552372 7025160
-0.011218965 0.073588848 -0.0079952478 7156228
-0.0099643357 0.074156344 -0.0082017183 7090433
-0.0087097101 0.07472378 -0.0084081292 7024897
-0.0075028762 0.075654238 -0.0076823831 6958337
-0.0062004514 0.075858712 -0.0088210106 6829313
-0.0049458183 0.076426208 -0.0090274215 6698497
-0.0036911927 0.076993644 -0.0092338324 6502407
-0.0024365596 0.07756114 -0.0094402432 6698766
-0.0011819303 0.078128606 -0.0096467137 6960664
7.269904e-05 0.078696072 -0.0098531246 7156770
0.0013273247 0.079263538 -0.010059536 7353658
0.002581954 0.079831004 -0.010265946 7616082
0.0038042329 0.080768406 -0.0095427632 7878715
0.0050605796 0.081336647 -0.0097494721 7878692
0.0063169263 0.081904888 -0.009956181 7813401
0.0075188726 0.083217651 -0.0083055496 7813902
0.0087786503 0.083787441 -0.0085128546 7879951
0.010038432 0.084357232 -0.0087200999 7945744
0.011254106 0.085676253 -0.0070716143 8011799
0.012517314 0.086247593 -0.0072794557 8141343
0.013780527 0.086818933 -0.0074872971 8271654
0.015026834 0.087767184 -0.006768167 8073773
0.016291764 0.088339299 -0.0069763064 7876392
0.01755669 0.088911414 -0.0071844459 7812388
0.018821616 0.089483559 -0.0073925257 7746340
0.020066474 0.090815723 -0.0057489872 7549476
0.021309871 0.09253183 -0.0031808615 7352874
0.022583377 0.09310782 -0.0033904314 7550001
0.023842227 0.0948309 -0.00082486868 7746904
-0.041459102 0.059430718 -0.0081654787 5787905
-0.040399548 0.060683072 -0.0064927936 5590273
-0.03915007 0.061248213 -0.00669837 5455364
-0.03772096 0.061121464 -0.008780539 5516806
-0.036474917 0.061685055 -0.008985579 5584131
-0.035228867 0.062248647 -0.0091905594 5847809
-0.033982821 0.062812239 -0.0093955994 6110226
-0.032736771 0.063375831 -0.0096005797 6307107
-0.031490725 0.063939393 -0.0098056197 6567450
-0.030244675 0.064502984 -0.01001066 6699281
-0.028998628 0.065066576 -0.01021564 6828308
-0.027752582 0.065630168 -0.01042068 6631702
-0.026655268 0.066899598 -0.0087541342 6500625
-0.025260482 0.066757321 -0.0108307 6500620
-0.024156306 0.068029851 -0.0091653466 6500106
-0.022906829 0.068594992 -0.009370923 6565128
-0.021657344 0.069160134 -0.0095764995 6631432
-0.020407867 0.069725275 -0.0097820759 6762249
-0.019158389 0.070290416 -0.0099876523 6893579
-0.017784197 0.070138842 -0.012060761 7090958
-0.01665942 0.07142067 -0.010398805 7288333
-0.015468862 0.072345704 -0.0096712112 7223308
-0.014160465 0.072550952 -0.010809958 7157513
-0.012910984 0.073116094 -0.011015534 7222790
-0.011715274 0.074043453 -0.010288775 7288067
-0.010568183 0.075335383 -0.0086305737 7222529
-0.0093135536 0.075902849 -0.0088370442 7156225
-0.0081075504 0.076834887 -0.0081118941 7089154
-0.0068042949 0.077037781 -0.009249866 7024644
-0.0055496655 0.077605247 -0.0094563365 6960391
-0.0043385103 0.07853961 -0.0087320209 6894865
-0.0030404069 0.07874018 -0.0098691583 6894874
-0.0018258207 0.079676092 -0.0091454387 6960154
-0.00056947395 0.080244333 -0.0093521476 7090713
0.00068687275 0.080812573 -0.0095588565 7222561
0.0019432195 0.081380814 -0.0097655654 7485225
0.0031995624 0.081949055 -0.0099722743 7812896
0.0044559091 0.082517326 -0.010178983 7813144
0.0057122521 0.083085567 -0.010385692 7813135
0.0069125481 0.084401548 -0.0087362528 7878663
0.0081723258 0.084971339 -0.0089434981 7944970
0.0093829148 0.086291999 -0.0072956085 8011277
0.01062325 0.087239534 -0.0065762401 8076314
0.01188818 0.087811649 -0.0067843795 8272424
0.013153106 0.088383764 -0.0069924593 8534311
0.014418032 0.088955909 -0.0072005987 8204583
0.015650939 0.090286642 -0.0055565238 7876641
0.016919296 0.090860307 -0.0057651997 7746842
0.018187657 0.091433972 -0.0059738755 7681051
0.019445155 0.092389286 -0.0052573085 7614235
0.020687792 0.094110996 -0.0026912689 7549213
-0.041000921 0.061857283 -0.0069199204 5657346
-0.039843794 0.062769175 -0.0061875582 5522695
-0.038501959 0.062987566 -0.0073310733 5520652
-0.037252482 0.063552678 -0.0075366497 5518598
-0.036003005 0.064117819 -0.0077422261 5650433
-0.034753516 0.064682961 -0.0079478025 5782278
-0.033504035 0.065248102 -0.008153379 5978379
-0.03209044 0.065110385 -0.010231614 6240010
-0.031005077 0.066378385 -0.0085645318 6370313
-0.029598344 0.066237539 -0.010641634 6500623
-0.028352298 0.066801131 -0.010846615 6368533
-0.027256638 0.068073779 -0.0091813207 6301710
-0.025860198 0.067928314 -0.011256695 6302216
-0.024614152 0.068491876 -0.011461675 6368267
-0.023508195 0.069769204 -0.0097980499 6499342
-0.022122059 0.06961906 -0.011871696 6565902
-0.020876009 0.070182651 -0.012076735 6696718
-0.019759756 0.071464628 -0.010414779 6827795
-0.018510271 0.07202974 -0.010620356 7024920
-0.01726079 0.072594881 -0.010825932 7223057
-0.016071055 0.073521525 -0.010098934 7223562
-0.014819857 0.074087441 -0.010304809 7289607
-0.013568662 0.074653357 -0.010510683 7289605
-0.012426656 0.075946957 -0.0088530779 7355395
-0.011172026 0.076514423 -0.0090594888 7288577
-0.0099174008 0.077081889 -0.0092658997 7287810
-0.0087122209 0.078015536 -0.0085413456 7155459
-0.0074558742 0.078583777 -0.0087480545 7088392
-0.0061995313 0.079152018 -0.0089547634 7023630
-0.0049431846 0.079720259 -0.0091614723 7024666
-0.0036868379 0.0802885 -0.0093681812 7024935
-0.0024304949 0.08085674 -0.0095748901 7025436
-0.0011741482 0.081425011 -0.009781599 7090705
8.219853e-05 0.081993252 -0.009988308 7157257
0.0013385452 0.082561493 -0.010195017 7550209
0.0025948919 0.083129734 -0.010401726 7877894
0.0038512349 0.083697975 -0.010608435 7813388
0.0051075816 0.084266216 -0.010815144 7748102
0.0063062236 0.085585415 -0.0091668963 7812865
0.0075660013 0.086155206 -0.0093741417 7877382
0.0087749399 0.087479115 -0.0077274442 8011275
0.010014448 0.088428259 -0.0070086718 8141598
0.011279374 0.089000374 -0.0072167516 8272689
0.0125443 0.089572489 -0.007424891 8403753
0.01380923 0.090144634 -0.0076330304 8074274
0.015040483 0.091478586 -0.005990088 7811353
0.01630884 0.092052251 -0.0061988235 7746321
0.017577201 0.092625916 -0.0064074993 7615762
0.018833872 0.093582869 -0.0056915283 7483155
-0.040445987 0.063944995 -0.0066152811 5590022
-0.039103325 0.064161748 -0.0077582002 5521414
-0.037853841 0.064726889 -0.0079637766 5452550
-0.036604363 0.065292031 -0.008169353 5452551
-0.035354886 0.065857172 -0.0083749294 5518600
-0.034105401 0.066422313 -0.0085805655 5715978
-0.032690156 0.066281348 -0.010657549 5911820
-0.031606443 0.067552567 -0.0089917183 6042126
-0.030356962 0.068117708 -0.0091972947 6172432
-0.029107485 0.068682849 -0.0094028711 6105617
-0.027858004 0.069247991 -0.0096084476 6105611
-0.026459914 0.069099277 -0.01168263 6171140
-0.025213867 0.069662869 -0.01188767 6301959
-0.024109561 0.070943415 -0.010225177 6433034
-0.022721775 0.070790023 -0.01229769 6564622
-0.021475725 0.071353614 -0.01250267 6630931
-0.020361122 0.07263881 -0.010841906 6762260
-0.019111637 0.073203951 -0.011047482 6958869
-0.017924443 0.074131429 -0.010320783 7223571
-0.016673248 0.074697345 -0.010526657 7290642
-0.01542205 0.075263262 -0.010732532 7420941
-0.014170855 0.075829178 -0.010938406 7420681
-0.013030503 0.077125996 -0.0092819929 7420421
-0.011775874 0.077693462 -0.0094884038 7420161
-0.010521248 0.078260928 -0.0096948147 7418369
-0.0093168952 0.079196185 -0.0089708567 7287298
-0.0080605485 0.079764426 -0.0091775656 7154442
-0.0068042018 0.080332696 -0.0093842745 7153937
-0.005547855 0.080900937 -0.0095909834 7220763
-0.0042915121 0.081469178 -0.0097976923 7154980
-0.0030351654 0.082037419 -0.010004401 7155484
-0.0017788187 0.08260566 -0.01021111 7156244
-0.00052247196 0.083173901 -0.010417819 7156505
0.00073387101 0.083742142 -0.010624528 7550237
0.0019902177 0.084310383 -0.010831237 8009494
0.0032465644 0.084878623 -0.011037946 7879182
0.0045029111 0.085446864 -0.011244655 7748359
0.005699899 0.086769283 -0.0095975399 7747073
0.0069596805 0.087339103 -0.0098048449 7813637
0.0081669651 0.088666201 -0.0081592798 8011274
0.0094056465 0.089616954 -0.0074411035 8208408
0.010670573 0.090189099 -0.0076491833 8209191
0.011935499 0.090761214 -0.0078573227 8273183
0.013161667 0.092096835 -0.0062150359 8009495
0.014430027 0.09267053 -0.0064237118 7812114
0.015698388 0.093244195 -0.0066323876 7680526
0.016952518 0.094201982 -0.0059167147 7615759
-0.041048188 0.065120816 -0.007043004 5657350
-0.039704692 0.065335959 -0.0081853867 5523969
-0.038455214 0.065901101 -0.0083909631 5452295
-0.037205737 0.066466242 -0.0085965395 5320205
-0.035956252 0.067031384 -0.0088021159 5253899
-0.034706771 0.067596495 -0.0090076923 5384713
-0.033457294 0.068161637 -0.0092132688 5515790
-0.032207813 0.068726778 -0.0094188452 5714196
-0.030958332 0.069291919 -0.0096244216 5909777
-0.029708855 0.069857061 -0.009829998 5975054
-0.028459374 0.070422202 -0.010035574 5975047
-0.02705963 0.07027024 -0.012108624 6040321
-0.025813583 0.070833832 -0.012313604 6105348
-0.024710931 0.072117597 -0.010652304 6367495
-0.023321491 0.071961015 -0.012723625 6564367
-0.022075441 0.072524577 -0.012928665 6695960
-0.020962492 0.073813021 -0.011269033 6827797
-0.019713007 0.074378163 -0.011474609 7090963
-0.01852664 0.07530725 -0.010748506 7289878
-0.017275441 0.075873166 -0.01095438 7355674
-0.016143609 0.077170104 -0.0092980266 7421204
-0.014888983 0.07773757 -0.0095044374 7419918
-0.01363435 0.078305036 -0.0097108483 7484679
-0.012379721 0.078872502 -0.0099173188 7549697
-0.011177912 0.079808623 -0.0091935992 7680257
-0.0099215657 0.080376863 -0.0094003081 7483138
-0.0086652189 0.080945104 -0.009607017 7351563
-0.007408876 0.081513345 -0.0098137259 7286037
-0.0061525293 0.082081586 -0.010020435 7286043
-0.0048961826 0.082649827 -0.010227144 7220514
-0.0036398396 0.083218068 -0.010433853 7154461
-0.0023834892 0.083786309 -0.010640562 7154712
-0.0011271462 0.08435455 -0.01084727 7155241
0.00012920052 0.084922791 -0.011053979 7485242
0.0013142414 0.086243808 -0.0094063878 7814181
0.0025740191 0.086813599 -0.0096136332 7813905
0.0038337968 0.087383389 -0.0098209381 7748873
0.0050935745 0.08795318 -0.010028183 7815169
0.0062957779 0.089281976 -0.0083832741 7881733
0.0075589903 0.089853317 -0.0085911155 8013065
0.0087968446 0.09080568 -0.0078734756 8210195
0.010061771 0.091377795 -0.008081615 8208670
0.011326697 0.09194994 -0.0082897544 8273685
0.012551215 0.093288779 -0.0066486001 8076044
0.013819572 0.093862474 -0.006857276 7878667
0.015071157 0.094821066 -0.006141901 7681803
-0.040306065 0.066510171 -0.0086125135 5592066
-0.039056581 0.067075312 -0.00881809 5456647
-0.037807103 0.067640424 -0.0090236664 5186316
-0.036557619 0.068205565 -0.0092292428 4989706
-0.035308141 0.068770707 -0.0094348192 5055241
-0.034058664 0.069335848 -0.0096403956 5122058
-0.032892 0.070258021 -0.0089117885 5386252
-0.031559702 0.070466131 -0.010051548 5713673
-0.030389603 0.071389854 -0.0093234777 5779207
-0.02906074 0.071596384 -0.010462701 5909764
-0.027811255 0.072161525 -0.010668278 5909761
-0.026561778 0.072726667 -0.010873854 5973762
-0.025312301 0.073291808 -0.011079431 6301444
-0.023921203 0.073131979 -0.013149619 6629641
-0.022813339 0.074422091 -0.011490643 6761230
-0.021563862 0.074987233 -0.011696219 6959378
-0.020380031 0.075917155 -0.010970414 7157782
-0.019128833 0.076483071 -0.011176288 7420450
-0.018002082 0.077781677 -0.0095204711 7421486
-0.016747456 0.078349143 -0.0097269416 7420195
-0.015492827 0.078916609 -0.0099333525 7484695
-0.014238197 0.079484075 -0.010139763 7615248
-0.012983564 0.080051541 -0.010346174 7745033
-0.011782583 0.080989271 -0.0096231103 7941641
-0.010526236 0.081557512 -0.0098298192 7745034
-0.0092698894 0.082125753 -0.010036528 7548429
-0.0080135465 0.082693994 -0.010243237 7417617
-0.0067571998 0.083262235 -0.010449946 7351833
-0.0055008568 0.083830476 -0.010656655 7220770
-0.0042445101 0.084398717 -0.010863364 7154967
-0.0029881634 0.084966958 -0.011070073 7154700
-0.0018116385 0.086288095 -0.0094224811 7220757
-0.00047546998 0.086103439 -0.01148349 7420447
0.00070791692 0.087427676 -0.0098370314 7682584
