# .PCD v0.7 - Point Cloud Data file format
VERSION 0.7
FIELDS x y z rgba
SIZE 4 4 4 4
TYPE F F F U
COUNT 1 1 1 1
WIDTH 987
HEIGHT 1
VIEWPOINT 0 0 0 1 0 0 0
POINTS 987
DATA ascii
-0.011061573 0.00021994486 0.0026701093 2960385
-0.0099281464 0.00080156885 0.0022575855 1905921
-0.0087947343 0.0013831854 0.0018451214 922881
-0.0082480498 0.00017705001 0.0016466379 2299649
-0.0093338136 0.0041151084 -8.7738037e-05 3739905
-0.0087886658 0.0029124003 -0.00028568506 2953985
-0.007661311 0.0019648075 0.0014326572 2233601
-0.0076983999 0.00050698966 -0.00068157911 3216385
-0.008748753 0.0058977827 -0.00030106306 3672321
-0.008203622 0.0046950728 -0.00049901009 3084545
-0.007658489 0.0034923665 -0.00069695711 3282689
-0.0071133394 0.0022896659 -0.00089490414 3544065
-0.0065682065 0.0010869559 -0.0010928512 4199169
-0.0079105627 0.0063433908 -0.0016702414 3281665
-0.0073662046 0.0051424038 -0.0018678904 3346945
-0.0068218466 0.0039414093 -0.002065599 3805953
-0.0062774904 0.0027404204 -0.002263248 4264961
-0.0057331324 0.0015394241 -0.002460897 4791042
-0.0051887762 0.00033843704 -0.0026586056 5382660
-0.0098714959 0.0098238382 -0.0062784553 4142337
-0.0087469053 0.0089086555 -0.0045590401 3154434
-0.0082048774 0.007712828 -0.0047558546 2233089
-0.0073692389 0.0066521578 -0.0039954782 2954241
-0.0068264343 0.0054545943 -0.0041925907 3674369
-0.0062836297 0.004257042 -0.0043897033 4329217
-0.0051489063 0.0033195596 -0.0026739836 4987393
-0.0046045482 0.0021185633 -0.0028716326 5450241
-0.0046552327 0.00066435523 -0.004981041 5976322
-0.0092914421 0.01159125 -0.0064899921 4074753
-0.0087509658 0.010398835 -0.0066862106 3675138
-0.0076231621 0.0094853081 -0.0049679875 3281411
-0.0070811324 0.0082894806 -0.0051648021 2887938
-0.0062438864 0.0072296392 -0.0044050217 3543297
-0.0051090494 0.0063006803 -0.002689302 4264193
-0.0051582791 0.0048345216 -0.0047992468 4855809
-0.0046154726 0.0036369544 -0.0049963593 5513217
-0.004072668 0.0024394002 -0.0051934123 5910785
-0.0035298783 0.0012418367 -0.0053905249 6370817
-0.0029870737 4.4282526e-05 -0.0055876374 6568193
-0.0075834598 0.012453651 -0.0049833059 3475713
-0.007041445 0.011257809 -0.0051801205 3213825
-0.0064994171 0.010061963 -0.005376935 3410946
-0.0059573874 0.008866135 -0.0055737495 3607554
-0.005118534 0.0078071207 -0.0048145652 4197378
-0.0045757294 0.0066095591 -0.0050116777 4855041
-0.0040329248 0.0054120049 -0.0052087903 5448193
-0.0034901202 0.0042144358 -0.0054058433 6040833
-0.0029473156 0.0030168816 -0.0056029558 6371329
-0.002404511 0.00181932 -0.0058000684 6764802
-0.0018617045 0.00062176399 -0.0059971809 6961666
-0.0075908825 0.013933674 -0.0071092248 2821889
-0.0064597148 0.013030313 -0.0053922534 3279361
-0.0059177019 0.011834471 -0.0055890679 3738113
-0.005375674 0.010638621 -0.0057858825 4065793
-0.004833661 0.0094427969 -0.0059827566 4395010
-0.0042916164 0.0082469396 -0.0061795712 4920324
-0.0034503769 0.0071870405 -0.0054212213 5511426
-0.0029075723 0.0059894864 -0.0056182742 5974785
-0.0023647659 0.0047919173 -0.0058153868 6502657
-0.0018219613 0.0035943631 -0.0060124993 6830082
-0.0012791567 0.0023968015 -0.0062096119 7159811
-0.00073635206 0.0011992473 -0.0064067245 7290116
-0.00019354746 1.6838312e-06 -0.006603837 7420419
-0.0070108306 0.015701078 -0.0073207617 2362369
-0.0064703543 0.014508676 -0.0075170398 1903361
-0.0053359866 0.013606966 -0.0058012009 3083009
-0.0053894185 0.01212384 -0.0079095364 4262404
-0.004251929 0.011215275 -0.0061948299 4720904
-0.003709916 0.01001945 -0.0063917041 5248262
-0.0031678714 0.0088235941 -0.0065885186 5710340
-0.0023250077 0.0077645238 -0.0058307052 6171397
-0.001782218 0.0065669678 -0.0060278177 6566918
-0.0012393985 0.0053693987 -0.0062249303 6961158
-0.0006966088 0.0041718464 -0.0064220428 7223559
-0.0001538042 0.002974283 -0.0066191554 7552262
0.00099849142 0.0020331349 -0.0049098134 7615237
0.0015428346 0.00083214603 -0.005107522 7681030
-0.0064307787 0.01746849 -0.0075322986 3151105
-0.0058903024 0.016276076 -0.0077285767 3152129
-0.0053498428 0.015083674 -0.0079247952 3153409
-0.0048093665 0.01389125 -0.0081210732 4067585
-0.0042688902 0.012698837 -0.0083173513 4983304
-0.0037284307 0.011506421 -0.0085135698 5378575
-0.002586171 0.010596102 -0.0068006516 5839625
-0.0020441432 0.0094002467 -0.0069974661 6236676
-0.0015021134 0.0082043987 -0.0071942806 6697224
-0.00096008554 0.0070085637 -0.0073910952 6960140
-0.0004180558 0.0058127139 -0.0075879097 7288588
0.00042876042 0.004749326 -0.0068315864 7616780
0.0015827045 0.0038132612 -0.0051228404 7944969
0.0021270625 0.0026122723 -0.005320549 7812359
0.0026714206 0.0014112853 -0.005518198 7745801
0.003523685 0.00033588335 -0.004763782 7811851
-0.0061478242 0.019082021 -0.0086998343 3280385
-0.0053102542 0.018043496 -0.0079400539 3544577
-0.0047697928 0.016851079 -0.008136332 4004353
-0.0042293165 0.01565868 -0.0083326101 4462593
-0.0036888551 0.014466256 -0.0085288286 5052161
-0.0031483788 0.013273843 -0.0087251067 5710853
-0.0026079025 0.012081426 -0.0089213848 6042120
-0.001462426 0.011172757 -0.007209599 6435343
-0.00092039816 0.0099769011 -0.0074064136 6828567
-0.00037836842 0.0087810513 -0.0076032281 7222798
0.00016365945 0.0075852182 -0.0078000426 7421446
0.00070568919 0.0063893683 -0.0079969168 7682312
0.001554111 0.0053268075 -0.0072411299 8008201
0.0020969156 0.0041292477 -0.0074382424 8336392
0.0032556485 0.0031914115 -0.005731225 8075015
0.0041087456 0.0021185577 -0.004977107 7877127
0.0046538785 0.00091584958 -0.0051750541 7942406
-0.0058111381 0.022195727 -0.0077590346 3349249
-0.0055686049 0.020846885 -0.0089110732 3342593
-0.0047302023 0.0198109 -0.0081515908 3741185
-0.0041897409 0.018618494 -0.0083478689 4134913
-0.0036492646 0.017426077 -0.0085440874 4528385
-0.0031088032 0.016233675 -0.0087403655 4986881
-0.0025683269 0.015041254 -0.0089366436 5513730
-0.0020278506 0.013848837 -0.0091328621 6106370
-0.0014873892 0.012656422 -0.0093291402 6500098
-0.00033868104 0.011749417 -0.0076185465 6893846
0.00020334683 0.010553556 -0.007815361 7157290
0.00074537471 0.0093577057 -0.0080121756 7486229
0.0012874026 0.0081618708 -0.0082089901 7617281
0.0018294323 0.0069660228 -0.0084058642 7748356
0.0026794653 0.0059042908 -0.0076506734 7942919
0.0038398765 0.0049715359 -0.0059443116 8140039
0.0043842345 0.0037705507 -0.0061419606 8008712
0.0052389242 0.0026985258 -0.0053884387 7942917
0.0057840738 0.0014958158 -0.0055863857 8008450
0.0063292067 0.00029311515 -0.0057843328 8141825
-0.0055290889 0.023802459 -0.0089262724 2236931
-0.0049893893 0.022611756 -0.0091222525 2957825
-0.0044497047 0.02142106 -0.0093182325 3678209
-0.0039100032 0.020230368 -0.0095142126 4201985
-0.0033703186 0.019039672 -0.0097101927 4725761
-0.002830619 0.017848976 -0.0099061728 5118465
-0.0022909343 0.016658273 -0.010102153 5513473
-0.0014478154 0.015616249 -0.009344399 5975553
-0.00090733916 0.014423843 -0.0095406771 6500354
-0.00036686286 0.013231421 -0.0097369552 6895363
0.00078506209 0.012326071 -0.008027494 7353888
0.00132709 0.011130214 -0.0082243085 7555134
0.0018691178 0.0099343676 -0.008421123 7813663
0.0027192086 0.0088768974 -0.0076659918 7812865
0.0032620132 0.0076793265 -0.0078631043 7878150
0.0044240896 0.006751664 -0.0061573386 7943436
0.0049684625 0.0055506751 -0.0063549876 8008972
0.0055128038 0.0043496862 -0.0065526962 8008716
0.0063691195 0.0032784846 -0.0057997108 8008716
0.0069142673 0.0020757765 -0.0059976578 8140043
0.0074594002 0.00087307394 -0.0061956048 8337943
-0.0052486584 0.025404111 -0.010092854 3675400
-0.0047097486 0.024215121 -0.010288537 3282948
-0.0041708257 0.023026146 -0.010484219 3874817
-0.0036319159 0.021837156 -0.010679901 4465665
-0.0030929931 0.020648181 -0.010875642 4793601
-0.0025540832 0.019459207 -0.011071324 5187329
-0.001711715 0.018423144 -0.010313392 5580801
-0.00086776353 0.017383676 -0.0095559359 5908993
-0.00032728724 0.016191255 -0.009752214 6303233
0.00021318905 0.014998838 -0.0099484324 6697730
0.00075364858 0.013806421 -0.010144711 7025924
0.00129411 0.012614025 -0.010340989 7420971
0.002450835 0.011706868 -0.008633256 7682898
0.0029928628 0.01051102 -0.0088300705 7944745
0.0035348926 0.0093151852 -0.009026885 7878657
0.0043873824 0.0082568098 -0.0082726479 7878153
0.0049301721 0.0070592538 -0.0084697604 7877905
0.0060970318 0.0061298069 -0.0067657232 7943441
0.0066413898 0.004928818 -0.0069633722 7812369
0.0074993111 0.0038584508 -0.0062110424 7746835
0.0080444608 0.0026557427 -0.0064089894 7681813
0.009219829 0.0017074142 -0.0047081113 7616814
0.0097665302 0.00050128065 -0.0049066544 7160647
-0.0046702866 0.02716643 -0.010303736 3675140
-0.0047321841 0.025649372 -0.012409031 4002056
-0.0035924539 0.024788469 -0.010695159 4331270
-0.0030535292 0.023599494 -0.010890841 4791813
-0.0031201001 0.022092719 -0.012994409 5252099
-0.0025827438 0.020907167 -0.013189554 5448961
-0.0014367886 0.020032555 -0.011477947 5711878
-0.00059281103 0.018997323 -0.010720551 6041099
-5.3111464e-05 0.017806619 -0.010916531 6368776
0.00079322234 0.016766258 -0.010159969 6630917
0.0013336986 0.015573837 -0.010356247 6893572
0.0018741749 0.014381427 -0.010552466 7156482
0.0030325502 0.013479378 -0.0088453889 7484954
0.00357458 0.012283521 -0.0090422034 7748145
0.0041166078 0.011087673 -0.009239018 8075802
0.0049699303 0.01003186 -0.0084850788 7944962
0.0055127349 0.0088342987 -0.0086821914 7878928
0.0060555395 0.0076367371 -0.0088793039 7878686
0.0072256178 0.0067089442 -0.0071763992 7877907
0.0080843726 0.0056411251 -0.0064243674 7681801
0.0086295055 0.004438417 -0.0066223145 7485450
0.0091746543 0.0032357108 -0.0068202615 7223563
0.0097197872 0.0020330083 -0.0070182085 6962718
0.010899942 0.0010828953 -0.0053191185 6637618
-0.0041554626 0.027406599 -0.012619317 4199941
-0.0036181062 0.026221059 -0.012814462 4527625
-0.0030807499 0.025035508 -0.013009548 4790025
-0.0025433935 0.023849957 -0.013204694 5183753
-0.0020060372 0.022664409 -0.013399839 5579781
-0.0014686659 0.021478862 -0.013594985 5776385
-0.00031949393 0.020605896 -0.011884511 6040075
0.00021941587 0.019416906 -0.012080252 6236949
0.0010657907 0.018380795 -0.01132375 6499343
0.0019137505 0.017341256 -0.010567725 6761738
0.0024542268 0.016148839 -0.010764003 7024133
0.0036142822 0.015251856 -0.0090575218 7220993
0.0041562952 0.014056031 -0.0092543364 7418121
0.0046983249 0.012860175 -0.0094511509 7615505
0.0052403528 0.011664325 -0.0096479654 7878410
0.0060952827 0.010609349 -0.0088946223 7747844
0.0066380892 0.0094117802 -0.0090917349 7683096
0.0071808919 0.008214226 -0.0092888474 7747884
0.0083542028 0.0072880834 -0.0075871348 7746838
0.0088985441 0.0060870945 -0.0077847838 7420929
0.0097596999 0.0050183758 -0.0070335865 7029505
0.010304848 0.0038156696 -0.0072315931 6767361
0.010849967 0.0026129689 -0.0074295402 6505231
0.012033353 0.0016645193 -0.0057315826 6310430
0.012580054 0.00045838393 -0.0059300661 6114837
-0.003578756 0.029163849 -0.012829602 4463363
-0.0030413847 0.027978294 -0.013024747 4790542
-0.0025040433 0.02679275 -0.013219893 5052441
-0.001966672 0.025607198 -0.013414979 5314575
-0.0014293157 0.024421651 -0.013610125 5575941
-0.00089195929 0.0232361 -0.01380527 5907459
-0.00035460293 0.022050552 -0.014000416 6104065
0.00018275343 0.020865005 -0.014195502 6368010
0.0013367087 0.019990254 -0.012486815 6498835
0.0021846946 0.018954962 -0.011730909 6695439
0.0027243942 0.017764274 -0.011926889 6892042
0.0035747383 0.016723838 -0.011171758 7154439
0.0047380272 0.01582852 -0.0094664693 7286019
0.0052800402 0.014632691 -0.0096632838 7417606
0.0058220681 0.013436837 -0.0098600984 7549449
0.0066778325 0.012384385 -0.0091070533 7682310
0.0072206361 0.011186831 -0.0093041658 7616514
0.0077634407 0.0099892616 -0.0095012188 7551757
0.0083062453 0.0087917075 -0.0096983314 7617048
0.009482773 0.0078672227 -0.0079978704 7683340
0.01002713 0.0066662338 -0.0081955194 7160065
0.010889894 0.0055983439 -0.0074449182 6636546
0.011435027 0.0043956339 -0.0076428652 6375171
-0.0030020364 0.030921083 -0.013039887 4328965
-0.0027683787 0.029565573 -0.014188588 4658949
-0.0019273218 0.028549984 -0.013430178 4987927
-0.0013899654 0.027364444 -0.013625324 5249577
-0.00085260905 0.026178889 -0.01382041 5576981
-0.00031523779 0.024993341 -0.014015555 5839105
0.00022211857 0.023807794 -0.014210701 6104321
0.00075947307 0.022622243 -0.014405847 6366465
0.0019150954 0.021752592 -0.012697756 6630665
0.0024540033 0.020563602 -0.012893438 6761234
0.0033036135 0.019529141 -0.012138128 6957582
0.0041547902 0.018491257 -0.011383295 7022859
0.0046952665 0.017298844 -0.011579573 7086600
0.0058617704 0.016405173 -0.0098754168 7218182
0.0064037852 0.015209343 -0.010072231 7284484
0.0069458131 0.014013488 -0.010269046 7352066
0.007803184 0.012961866 -0.0095165968 7420929
0.0083459895 0.011764312 -0.0097136497 7289601
0.0088887932 0.010566745 -0.0099107623 7224066
0.0094315978 0.0093691889 -0.010107875 7093764
0.010611359 0.0084463619 -0.0084085464 6963714
0.011155716 0.007245373 -0.0086062551 6571521
-0.0021924898 0.031320266 -0.014398575 4526083
-0.0016559102 0.030136436 -0.014593422 4854531
-0.00081324391 0.029121675 -0.013835609 5247756
-0.00027590245 0.027936134 -0.014030755 5510165
0.00026146881 0.026750576 -0.014225841 5839115
0.00079882331 0.025565032 -0.014420986 6102529
0.0013361797 0.024379484 -0.014616132 6365441
0.001873536 0.023193933 -0.014811277 6629121
0.00303239 0.02232594 -0.01310432 6892306
0.0035712998 0.021136951 -0.013300061 7090723
0.0044225175 0.020103309 -0.012545288 7284760
0.0052753035 0.019066256 -0.01179105 7153676
0.0058157798 0.017873839 -0.011987329 7086601
0.0069855154 0.016981825 -0.010284364 7152389
0.0075275283 0.015786 -0.010481179 7218948
0.0080695571 0.01459014 -0.010677993 7220228
0.0089285513 0.01353935 -0.0099260807 7223042
0.009471342 0.012341794 -0.010123193 7027201
0.010014161 0.011144225 -0.010320306 6897153
0.010556951 0.0099466722 -0.010517418 6570754
-0.0010800362 0.03189113 -0.014803469 4919809
-0.00054345466 0.0307073 -0.014998257 5181953
-6.8750232e-06 0.029523473 -0.015193164 5509633
0.00052970462 0.028339636 -0.015388012 5707265
0.0010662843 0.027155802 -0.01558286 5970433
0.0019129012 0.026136722 -0.014826417 6233345
0.0024502575 0.024951175 -0.015021563 6430209
0.0029876139 0.023765627 -0.015216708 6628609
0.0041496847 0.022899281 -0.013510942 6892059
0.0046885945 0.021710292 -0.013706625 7153717
0.0055414215 0.020677485 -0.012952507 7415585
0.0063958298 0.019641262 -0.012198865 7218446
0.0069363061 0.018448845 -0.012395084 6955785
0.0081092594 0.017558478 -0.010693312 6890757
0.0086512724 0.016362652 -0.010890126 6891269
0.0091933012 0.015166797 -0.011086941 6827782
0.00973533 0.013970945 -0.011283815 6828803
0.010596695 0.012919277 -0.010532737 6635265
0.011139515 0.011721706 -0.010729849 6505729
0.011682304 0.010524154 -0.010926962 6178817
3.2419339e-05 0.03246199 -0.015208304 5378567
0.00056899898 0.031278163 -0.015403152 5575434
0.0011055768 0.030094333 -0.015597999 5772805
0.0016421583 0.028910499 -0.015792847 5970177
0.0021787528 0.027726661 -0.015987694 6166786
0.0030269641 0.026708413 -0.015231848 6364164
0.0035643205 0.025522865 -0.015426993 6561540
0.0041016769 0.024337318 -0.015622139 6693636
0.0052669812 0.023472629 -0.013917565 6890514
0.0058058891 0.02228364 -0.014113247 7218720
0.006975865 0.021408681 -0.012410343 7611157
0.0075163413 0.020216256 -0.012606621 7217419
0.0086909747 0.01933099 -0.010905445 6890503
0.0092330035 0.018135142 -0.011102259 6694659
0.0097750174 0.016939312 -0.011299074 6564870
0.010317046 0.015743457 -0.011495948 6500874
0.010859075 0.014547609 -0.011692762 6503173
0.0016814657 0.031849034 -0.015807986 5707795
0.0022180472 0.030665204 -0.016002834 5904906
0.0027546268 0.02948137 -0.016197681 6035714
0.0032912064 0.028297532 -0.016392529 6166788
0.004141042 0.027280103 -0.015637279 6299399
0.0046783984 0.02609456 -0.015832424 6433031
0.0058453511 0.025234953 -0.014128447 6562824
0.0063842759 0.024045978 -0.014324129 6692362
0.0072395429 0.023016531 -0.013570905 6888972
0.0080963923 0.021983683 -0.012818158 7151370
0.0086368676 0.020791262 -0.013014376 6890504
0.0098147197 0.019907642 -0.011314392 6629892
0.010356748 0.018711794 -0.011511207 6434305
0.010898761 0.017515969 -0.011708021 6304519
0.01144079 0.016320109 -0.011904895 6241038
0.011982818 0.015124261 -0.01210171 6177543
0.0027939212 0.032419898 -0.016212821 5905421
0.0033305008 0.031236067 -0.016407669 6036232
0.0038670804 0.030052233 -0.016602516 6101508
0.0047177467 0.029037341 -0.015847564 6168072
0.0052551031 0.027851794 -0.016042709 6234636
0.0057924613 0.026666246 -0.016237855 6366995
0.0069626477 0.025808301 -0.014535069 6432282
0.0075015696 0.024619326 -0.014730752 6562834
0.0083584469 0.02359071 -0.013978064 6627849
0.0092169195 0.022558689 -0.013225913 6693639
0.010396436 0.021680139 -0.011526525 6565124
0.010938449 0.020484298 -0.01172334 6435332
0.011480478 0.019288447 -0.011920154 6240004
0.012022506 0.018092621 -0.012116969 6044933
0.012564534 0.016896766 -0.012313843 5980935
0.004757097 0.031980131 -0.015862763 6102278
0.0052944534 0.030794591 -0.016057909 6232582
0.0058318097 0.029609036 -0.016252995 6365707
0.0070021227 0.028759602 -0.014550269 6300689
0.0075410325 0.027570613 -0.014745951 6301215
0.0083979797 0.026546273 -0.013993323 6301229
0.0089376643 0.025355581 -0.014189303 6301466
0.0097969705 0.024326086 -0.01343745 6366215
0.010978151 0.023452636 -0.011738658 6366980
0.01152018 0.022256792 -0.011935472 6305281
0.012062208 0.021060951 -0.012132287 6241796
0.012604222 0.019865103 -0.012329102 5980935
0.014116682 0.019127134 -0.0096867681 5720324
0.0064085163 0.031366281 -0.016463339 6363907
0.0069458876 0.030180726 -0.016658425 6562822
0.0081194183 0.029332951 -0.014956892 6366729
0.0086583262 0.028143961 -0.015152574 6236432
0.0095168827 0.027120441 -0.014400482 6171671
0.010377022 0.026093502 -0.013648927 6105615
0.011559867 0.025225136 -0.011950791 6103559
0.012101895 0.024029288 -0.012147605 6107396
0.012643924 0.022833448 -0.01234442 6045697
0.013185953 0.021637604 -0.012541234 6047490
0.013727967 0.020441756 -0.012738049 5721604
0.015245267 0.019706272 -0.010097504 5393922
0.0075225942 0.031937972 -0.01686877 6169089
0.0080599505 0.030752417 -0.017063856 6235649
0.0085973209 0.029566869 -0.017259002 6104833
0.0097756218 0.028717309 -0.015559196 6040833
0.010314531 0.027528334 -0.015754879 5909761
0.012141597 0.02699763 -0.012162924 5844228
0.012683611 0.0258018 -0.012359738 5911560
0.01322564 0.024605948 -0.012556553 6044677
0.013767669 0.023410108 -0.012753367 5981698
0.014309698 0.022214267 -0.012950182 5918465
0.0091740275 0.031324107 -0.017469287 5973510
0.0097113838 0.03013856 -0.017664433 5908481
0.01024874 0.028953012 -0.017859578 5845250
0.010786097 0.027767461 -0.018054724 5714436
0.013265342 0.027574282 -0.012571871 5586692
0.013807356 0.026378449 -0.012768686 5786628
0.014349384 0.025182605 -0.0129655 5983241
0.0099659599 0.031722713 -0.018821597 5584395
0.010502541 0.030538876 -0.019016445 5649666
0.011362819 0.029524703 -0.018265009 5715204
0.011900174 0.028339155 -0.018460155 5718023
0.011078415 0.032293584 -0.019226432 5194246
0.011614996 0.031109739 -0.019421279 5391873
-0.02001184 0.00045206025 0.010552585 4592398
-0.019855401 0.0015743729 0.0094593167 4722961
-0.019591855 0.0027474724 0.0093998313 4267029
-0.019328291 0.00392057 0.0093404651 3872779
-0.01906473 0.0050936695 0.0092809796 4265729
-0.018801169 0.0062667672 0.0092216134 4593425
-0.018857652 0.0002041962 0.010778368 4854535
-0.01859452 0.0013754405 0.010719001 4986377
-0.01843583 0.0024992153 0.0096260905 4725259
-0.01806823 0.0037179254 0.010600388 4528646
-0.017805098 0.0048891678 0.010541022 4659714
-0.017645149 0.0060185101 0.0094477534 4790283
-0.017278807 0.0072316546 0.010422289 4396820
-0.017015675 0.0084028952 0.010362923 4069644
-0.017496517 5.9487298e-05 0.013070285 4988673
-0.017440332 0.0011275765 0.010944903 5055489
-0.017279839 0.002250962 0.0098523498 4921857
-0.016914042 0.0034700613 0.01082617 4790786
-0.01665091 0.0046413038 0.010766923 5051395
-0.016489154 0.0057702567 0.0096740127 5312261
-0.016225608 0.00694336 0.0096145272 4919815
-0.015962048 0.0081164595 0.009555161 4527364
-0.015698483 0.009289559 0.0094956756 4659458
-0.015434923 0.010462658 0.0094361901 4790529
-0.015171377 0.011635756 0.0093768239 4920577
-0.014907816 0.012808856 0.0093173385 4988929
-0.016083708 0.0009799432 0.013236344 5184513
-0.016023027 0.0020509586 0.011111438 5118466
-0.01575988 0.003222201 0.011052072 5052162
-0.015496751 0.0043934435 0.010992706 5443074
-0.015333148 0.0055220015 0.0099002719 5836291
-0.014970457 0.0067359321 0.010874093 5443077
-0.014806038 0.0078682024 0.009781301 5052164
-0.014542477 0.0090413019 0.0097219348 5052418
-0.01437681 0.010179142 0.008629024 5052162
-0.014112832 0.011354094 0.0085694194 5051906
-0.013945913 0.012497498 0.0074762702 5054721
-0.013681518 0.013674311 0.0074166656 4925185
-0.014933171 0.00073286332 0.013461411 5577218
-0.014868839 0.0018030964 0.01133734 5445636
-0.014605692 0.0029743388 0.011277974 5379074
-0.014342563 0.0041455831 0.011218607 5574913
-0.014177142 0.0052737482 0.010126412 5771778
-0.013913592 0.0064468496 0.010067046 5510660
-0.013650032 0.0076199491 0.01000756 5249539
-0.013386471 0.0087930486 0.009948194 5249539
-0.013218971 0.0099304914 0.0088556409 5316611
-0.012954993 0.011105444 0.0087960362 5316867
-0.012786252 0.012248458 0.0077032447 5317122
-0.012521861 0.013425272 0.0076435208 5252097
-0.012257466 0.01460208 0.0075839162 5253377
-0.011993075 0.015778892 0.0075243115 5251329
-0.01172868 0.016955703 0.0074647069 5251589
-0.010688683 0.023936294 0.00090116262 4989458
-0.010421781 0.025124244 0.00084096193 4990751
-0.010064682 0.026321854 0.0018152595 4992027
-0.009798212 0.027507946 0.001755178 5059351
-0.0096211042 0.028688088 0.00066035986 5192460
-0.009354217 0.029876038 0.00060015917 5261314
-0.0090873148 0.031063985 0.00054007769 5330177
-0.0088204276 0.032251932 0.000479877 5067009
-0.013782663 0.00048579089 0.013686597 5969670
-0.013520351 0.001653323 0.01362747 5838602
-0.013451518 0.0027264785 0.011503875 5707018
-0.013188386 0.0038977228 0.011444509 5705738
-0.013021117 0.0050254911 0.010352671 5707026
-0.012757571 0.0061985925 0.010293305 5577242
-0.012494011 0.007371692 0.010233819 5511953
-0.01232511 0.0085068904 0.0091417432 5512200
-0.012061147 0.0096818451 0.0090821385 5579538
-0.011797169 0.010856798 0.0090226531 5580061
-0.011626596 0.011999417 0.0079301 5579535
-0.011362201 0.013176233 0.0078704953 5579009
-0.011097809 0.014353041 0.0078108907 5644545
-0.010925567 0.015503086 0.0067179799 5579265
-0.010569023 0.016706668 0.0076916814 5578757
-0.010304632 0.017883476 0.0076319575 5316106
-0.0099617746 0.021326482 0.0022844672 5053442
-0.0097849313 0.022496946 0.0011904836 4920835
-0.0095180441 0.023684893 0.0011302829 4853770
-0.0091623459 0.024884764 0.0021041036 4721426
-0.0089842509 0.026060794 0.0010098815 4662799
-0.0086294021 0.027256943 0.0019839406 4595468
-0.0084504616 0.028436683 0.00088948011 4593161
-0.0081835743 0.029624637 0.00082927942 4197639
-0.0079166722 0.030812588 0.00076907873 3870468
-0.0076497849 0.032000534 0.00070887804 3871233
-0.012536405 0.00028999895 0.014943421 6165770
-0.012369828 0.0014062468 0.013852537 6166289
-0.01229733 0.0024786144 0.011729658 6167314
-0.012034198 0.0036498588 0.011670291 6036755
-0.011865126 0.0047772378 0.01057893 5972002
-0.01160158 0.0059503391 0.010519445 5906993
-0.01133802 0.0071234386 0.010460079 5907487
-0.011074455 0.0082965381 0.010400593 5907726
-0.010903304 0.0094331987 0.0093087554 5908258
-0.010639327 0.010608152 0.00924927 5908535
-0.010466924 0.011750374 0.0081570745 5908764
-0.010202529 0.012927189 0.0080974698 5908993
-0.0099381376 0.014103997 0.0080378652 5975041
-0.0097640585 0.015253648 0.006945312 5974529
-0.00949925 0.016432315 0.0068855882 5974278
-0.0092344414 0.017610986 0.0068258643 5710092
-0.0090587009 0.018768068 0.0057328343 5444871
-0.0089707766 0.019909121 0.0036066175 5446403
-0.0087047201 0.021093354 0.003546536 5380866
-0.0085264798 0.022261571 0.0024530292 5248769
-0.0082600079 0.023447663 0.0023929477 5117187
-0.0079935212 0.024633754 0.0023328662 5051909
-0.0077270493 0.025819849 0.0022727847 4989187
-0.0074605774 0.027005937 0.0022127032 5054465
-0.0071940906 0.028192028 0.0021525025 5117190
-0.0070129316 0.029373236 0.0010583997 4854028
-0.0067460295 0.030561183 0.00099819899 4590855
-0.0064791422 0.031749129 0.00093799829 4460802
-0.01138773 4.3319538e-05 0.01516825 6428680
-0.011219306 0.0011591669 0.014077723 6494217
-0.011143172 0.002230756 0.011955559 6627337
-0.01088004 0.0034020003 0.011896193 6432778
-0.010616893 0.0045732427 0.011836827 6301457
-0.010445574 0.0057020858 0.010745704 6301209
-0.01018201 0.0068751853 0.010686219 6300688
-0.0099184494 0.0080482848 0.010626853 6300167
-0.0096548889 0.0092213843 0.010567367 6301457
-0.0093913432 0.010394486 0.010507882 6236956
-0.0092175249 0.01153446 0.0094162822 6237198
-0.0090428721 0.012678152 0.0083244443 6302977
-0.0087784771 0.013854962 0.0082647204 6368514
-0.0085140839 0.015031774 0.0082051158 6366979
-0.0083377585 0.016182881 0.0071128011 6366470
-0.0080729499 0.017361552 0.0070530772 6104074
-0.0078953784 0.018518239 0.0059605241 5906438
-0.0076301526 0.019698765 0.005900681 5839874
-0.0075377449 0.020842742 0.003774941 5773825
-0.0072716903 0.022026982 0.0037149787 5576705
-0.0070056338 0.023211215 0.0036548972 5445378
-0.0067395624 0.024395458 0.0035949349 5379844
-0.0064735059 0.025579691 0.0035348535 5382403
-0.0062074494 0.026763927 0.0034748912 5513730
-0.0059413798 0.027948163 0.0034149289 5643012
-0.0057588089 0.029127121 0.0023211837 5445383
-0.0054923389 0.030313209 0.0022611022 5313540
-0.0053085163 0.031497743 0.0011671185 4985089
-0.010068798 0.00091209076 0.014302909 6694913
-0.009806497 0.002079621 0.014243782 6827265
-0.0097258519 0.0031541362 0.012122095 6630401
-0.0094627049 0.0043253805 0.012062728 6499329
-0.0092895646 0.0054538324 0.010971963 6499073
-0.009026004 0.006626932 0.010912478 6499073
-0.0087624434 0.0078000333 0.010852993 6498561
-0.008498881 0.0089731328 0.010793626 6498305
-0.0082353354 0.010146232 0.010734141 6499329
-0.0080596711 0.01128581 0.009642899 6500353
-0.0077956934 0.012460768 0.0095832944 6565633
-0.0076188184 0.013605922 0.0084916949 6696707
-0.0073544253 0.01478273 0.0084320903 6696710
-0.007176267 0.015933454 0.0073401332 6631175
-0.0069114584 0.017112125 0.0072804093 6433032
-0.0066466499 0.018290788 0.0072206855 6234628
-0.0064668283 0.01944894 0.0061283708 6171649
-0.0062016044 0.020629462 0.0060685277 6043137
-0.0061046984 0.021776374 0.0039432645 5906945
-0.0056711547 0.02299051 0.0059489608 5840386
-0.0055725705 0.024144847 0.0038233399 5775108
-0.0053065177 0.025329079 0.0037632585 5775619
-0.0050404612 0.026513316 0.0037032962 5775875
-0.0047743898 0.027697552 0.0036432147 5840898
-0.0045900028 0.028876118 0.0025499463 5775106
-0.0043235309 0.030062206 0.0024898648 5709313
-0.0041378736 0.031246345 0.0013962388 5380353
-0.0038709715 0.032434292 0.0013360381 5116929
-0.008918291 0.00066501647 0.014528096 6826753
-0.0088348072 0.0017350297 0.012407243 7089409
-0.0085716769 0.0029062722 0.012347996 6893569
-0.0083085317 0.0040775165 0.01228863 6696707
-0.0081335586 0.0052055772 0.011198103 6696710
-0.007869998 0.0063786767 0.011138737 6696708
-0.0076064356 0.0075517744 0.011079252 6697731
-0.007342875 0.0087248757 0.011019766 6696962
-0.0070793275 0.0098979753 0.0109604 6696450
-0.0068157651 0.011071073 0.010900915 6763019
-0.0066378824 0.012212126 0.0098099113 6894869
-0.0063739046 0.013387082 0.0097503066 7091980
-0.0061947536 0.014533691 0.0086590648 7026947
-0.0059303604 0.015710507 0.0085993409 6959876
-0.0057499669 0.01686269 0.0075077415 6762245
-0.0054851603 0.018041357 0.0074480176 6631427
-0.0053035058 0.019199114 0.0063560605 6500865
-0.00503828 0.020379633 0.0062962174 6369025
-0.0047730561 0.021560159 0.0062363744 6302978
-0.0045078322 0.022740684 0.0061765313 6234626
-0.0044055972 0.023894232 0.0040516257 6168067
-0.0041395407 0.025078464 0.0039916635 6168580
-0.0038734842 0.026262701 0.0039317012 6103557
-0.0036074128 0.027446941 0.0038716197 6038787
-0.0033413582 0.028631177 0.0038116574 6039809
-0.0031547211 0.029811203 0.0027185082 6103809
-0.0028882343 0.030997299 0.0026584268 5840385
-0.0026217625 0.03218339 0.0025983453 5577729
-0.0077677667 0.00041794032 0.014753163 6761985
-0.0076806191 0.0014871657 0.012633145 6893057
-0.0074174888 0.00265841 0.012573779 6762753
-0.0071543436 0.0038296543 0.012514412 6632198
-0.0069775525 0.0049573202 0.011424363 6631435
-0.0067139901 0.0061304197 0.011364877 6631176
-0.0064504296 0.0073035173 0.011305511 6697990
-0.0061868671 0.0084766187 0.011246026 6764036
-0.0059233196 0.0096497182 0.011186659 6829315
-0.005659759 0.010822816 0.011127174 6894870
-0.0054800306 0.011963475 0.010036528 7223082
-0.0052160528 0.013138432 0.0099769235 7551253
-0.0050350968 0.014284652 0.00888592 7354369
-0.0047707036 0.015461463 0.0088263154 7157506
-0.0045884773 0.016613256 0.0077349544 6958851
-0.0043236688 0.017791923 0.0076752305 6828034
-0.0040588602 0.018970594 0.0076156259 6631681
-0.0038749557 0.020129807 0.0065239072 6499330
-0.0036097318 0.021310333 0.0064640641 6564612
-0.003344506 0.022490855 0.0064042211 6629123
-0.0030792821 0.023671381 0.006344378 6498306
-0.0029725488 0.024827853 0.0042200685 6367492
-0.0027064942 0.026012093 0.004159987 6302471
-0.0024404228 0.027196325 0.0041000247 6237700
-0.0021743663 0.028380558 0.0040400624 6434049
-0.0019083098 0.029564794 0.0039799809 6630401
-0.0017194245 0.030746292 0.0028871894 6235393
-0.0014529526 0.031932384 0.0028271079 5777409
-0.0066172443 0.00017086416 0.014978349 6763011
-0.0065264609 0.0012393054 0.012859046 6697474
-0.0062633306 0.0024105497 0.01279968 6631938
-0.0060001835 0.003581794 0.012740314 6631685
-0.0058215447 0.0047090631 0.011650622 6566153
-0.0055579841 0.0058821626 0.011591136 6566150
-0.0052944236 0.0070552602 0.01153177 6698500
-0.0051141363 0.0081899613 0.01044172 6895107
-0.0048501585 0.0093649179 0.010382116 6960387
-0.0045861825 0.010539873 0.01032263 7091471
-0.0044042096 0.011681993 0.009232223 7551259
-0.0041398164 0.012858804 0.0091724992 8009233
-0.0038754232 0.014035612 0.0091128945 7680519
-0.0036917794 0.015185151 0.0080220103 7352326
-0.0034269709 0.016363822 0.0079622865 7155462
-0.003242081 0.017518938 0.0068711638 7024644
-0.0031358693 0.018656064 0.004748404 6828290
-0.0028698128 0.019840296 0.0046884418 6696707
-0.0026037563 0.021024536 0.0046283603 6826243
-0.0023377016 0.022208769 0.004568398 7022850
-0.0020716302 0.023393009 0.0045084357 6760961
-0.0018055737 0.024577241 0.0044483542 6564612
-0.0016165338 0.02575092 0.0033562779 6499591
-0.0013500471 0.026937012 0.0032961965 6434053
-0.0010835752 0.028123103 0.003236115 6827010
-0.00081710331 0.029309195 0.0031760335 7218945
-0.00055061653 0.03049529 0.003115952 6627841
-0.00028414465 0.031681381 0.0030557513 6039809
-0.0053722896 0.0009914469 0.013084948 6763268
-0.0051091574 0.0021626893 0.013025582 6762499
-0.0048460122 0.0033339337 0.012966216 6762245
-0.004582867 0.0045051761 0.012906849 6762759
-0.0043197349 0.0056764185 0.012847483 6763268
-0.0041384324 0.0068070106 0.01175791 6829058
-0.0039562955 0.0079413112 0.010668218 6960643
-0.0036923196 0.0091162678 0.010608733 7025412
-0.0034283418 0.010291222 0.010549128 7090440
-0.0032445509 0.011432953 0.0094590783 7352844
-0.0029801577 0.012609763 0.0093994737 7615501
-0.0027951114 0.013757054 0.0083090663 7418382
-0.0025303029 0.014935721 0.0082493424 7285515
-0.0022654943 0.016114388 0.0081896186 7155209
-0.0020787716 0.017269116 0.0070988536 7023878
-0.0019688923 0.018405452 0.004976809 6893828
-0.0017028376 0.019589685 0.0049168468 6763267
-0.0014367811 0.020773925 0.0048567653 6762755
-0.0011707246 0.021958157 0.004796803 6827778
-0.00090465322 0.023142401 0.0047368407 6696961
-0.00063859671 0.024326634 0.0046767592 6566148
-0.00044772401 0.025499918 0.0035850406 6500104
-0.00018123724 0.026686009 0.0035249591 6368518
0.00015958585 0.027879339 0.0044967532 6630148
0.00042564236 0.029063575 0.0044367909 6824706
0.0006181933 0.030244283 0.0033445954 6497793
0.00088466331 0.031430375 0.003284514 6105602
-0.0042180996 0.00074358284 0.01331073 6894598
-0.0039549693 0.0019148272 0.013251364 6893058
-0.0036918242 0.0030860715 0.013192117 6892804
-0.0035095327 0.0042125583 0.012103021 6892551
-0.0032459721 0.0053856559 0.012043655 6958344
-0.0029824097 0.0065587536 0.011984169 7024138
-0.0027984567 0.0076926649 0.010894835 7090697
-0.0025344789 0.0088676196 0.01083535 7090184
-0.0022705011 0.010042576 0.010775745 7090440
-0.0020848922 0.011183908 0.0096860528 7155207
-0.0018204991 0.01236072 0.0096264482 7288081
-0.0016336199 0.013507621 0.0085363984 7222044
-0.00144591 0.014658235 0.0074461102 7221781
-0.0011806861 0.015838757 0.0073862672 7155983
-0.0010679737 0.016970605 0.0052651763 7090446
-0.00080190226 0.018154841 0.005205214 6959373
-0.00053584576 0.019339077 0.0051451325 6893325
-0.0003448166 0.020504542 0.0040541291 6761998
-3.7327409e-06 0.02170755 0.005025208 6631433
0.00026233681 0.022891786 0.0049651265 6631941
0.00045461394 0.02406282 0.0038738847 6631957
0.00072108395 0.025248911 0.0038138032 6501157
0.00098757073 0.026435006 0.0037537217 6368536
0.0012540426 0.027621098 0.003693521 6433546
0.0015205145 0.028807189 0.0036334395 6499080
0.0017153211 0.029989362 0.0025416017 6368262
0.0020534731 0.031179372 0.0035132766 6236426
0.0022491124 0.032365255 0.0024212003 6433294
-0.0030639265 0.00049572252 0.013536632 6764039
-0.0028007962 0.0016669668 0.013477266 6958337
-0.0025376491 0.0028382111 0.0134179 7218692
-0.0023535416 0.0039643049 0.01232928 7088135
-0.0020899791 0.0051374026 0.012269795 7024396
-0.0019045938 0.0062690638 0.011180937 7024658
-0.0017183982 0.0074044354 0.010091841 7091215
-0.001454005 0.0085812453 0.010032237 7090445
-0.0011896119 0.0097580571 0.0099726319 7090440
-0.0010017324 0.010900851 0.008883059 7155715
-0.00081303529 0.012047362 0.0077933669 7223062
-0.00054780953 0.013227886 0.0077336431 7157546
-0.0004331097 0.014351521 0.005613625 7157791
-0.00016705319 0.015535757 0.0055535436 6959125
9.9003315e-05 0.016719993 0.0054935813 6824982
0.00036507472 0.017904229 0.0054334998 7022359
0.0005575195 0.019067444 0.0043429732 7154200
0.00082398951 0.020253539 0.0042828918 6892057
0.0010904614 0.021439631 0.0042228103 6629905
0.0013569482 0.022625726 0.0041627288 6696969
0.001551481 0.023798224 0.0030717254 6828582
0.0018898919 0.024997909 0.0040424466 6434883
0.0020852722 0.026174117 0.002951324 6041130
0.0023521595 0.027362064 0.0028911233 6106385
0.0026893225 0.028556187 0.0038622022 6237454
0.0028859489 0.029737964 0.0027707219 6171660
0.0031528529 0.030925911 0.0027105212 6105363
0.0034197401 0.032113858 0.0026503205 6236954
-0.0019097533 0.00024786033 0.013762534 6632977
-0.0017246269 0.0013698488 0.012674391 7089410
-0.0014610663 0.0025429465 0.012614906 7547140
-0.0012747087 0.003670508 0.011526644 7283973
-0.0010107309 0.0048454627 0.01146704 7090451
-0.00074675307 0.0060204174 0.011407554 7090720
-0.00055873953 0.007155396 0.010318816 7156245
-0.000369858 0.008294085 0.0092298388 7156235
-0.00010504946 0.0094727501 0.009170115 7156230
8.5080042e-05 0.010617012 0.0080808997 7156226
0.00035030395 0.011797534 0.0080210567 7223308
0.00046779588 0.012916675 0.0059019923 7157270
0.00066041201 0.014072072 0.004812181 7091473
0.00092689693 0.015258163 0.0047519803 6827788
0.0011933688 0.016444255 0.0046918988 6630427
0.0014598407 0.017630346 0.0046318173 7022890
0.001654543 0.018795028 0.0035415292 7481632
0.0019214451 0.019982979 0.0034813285 7088407
0.0021883342 0.021170925 0.0034211278 6695438
0.0024552364 0.022358879 0.0033609271 6827782
0.0026520323 0.023532834 0.0022702813 7024404
0.0029890109 0.024734773 0.0032405257 6369058
0.0031866543 0.025912445 0.0021497607 5713431
0.0035228021 0.02711067 0.0031202435 5844236
0.0037897043 0.02829862 0.0030600429 5975049
0.0040565915 0.029486567 0.0029998422 5975046
0.0043234937 0.030674513 0.0029396415 5975050
0.0045232158 0.031861462 0.0018482804 6106381
-0.00075557828 0 0.013988316 6895130
-0.00056863576 0.0011215992 0.012900651 7156740
-0.00030507334 0.0022946969 0.012841165 7418372
-0.00011688285 0.0034218617 0.011753142 7287556
0.00014709495 0.0045968145 0.011693656 7156761
0.00033654086 0.005729543 0.010605395 7222319
0.00052681006 0.0068659876 0.0095168948 7288092
0.00079161674 0.0080446545 0.009457171 7287817
0.00098316371 0.0091866646 0.0083683133 7222277
0.0012483876 0.01036719 0.0083085895 7222785
0.0013687145 0.011481825 0.0061903596 7223554
0.0015627481 0.012634972 0.0051009059 7222275
0.00182922 0.013821065 0.0050408244 7287299
0.0020245072 0.01497978 0.0039512515 6958596
0.0022913963 0.016167734 0.0038910508 6630689
0.0025582984 0.01735568 0.0038308501 6827326
0.0027552489 0.018521823 0.0027409196 7089705
0.0030225534 0.019711625 0.0026805997 6826261
0.0033589769 0.020919528 0.0036502481 6629900
0.0036258791 0.022107475 0.0035900474 6630148
0.0038244929 0.023281045 0.0024997592 6630402
0.0041596536 0.024483375 0.003469646 6237441
0.0043591149 0.025660653 0.0023791194 5844484
0.0046934448 0.026859269 0.0033492446 5910279
0.004960347 0.028047215 0.0032890439 6041860
0.0052272342 0.029235162 0.0032288432 6041089
0.0054941364 0.030423116 0.0031687617 6041089
0.0056956764 0.031609673 0.0020777583 6171649
0.00066174008 0.00092338026 0.014154851 7223042
0.00085093081 0.0020464417 0.013067424 7288322
0.0010409709 0.0031732116 0.011979759 7288322
0.0013049487 0.0043481644 0.011920273 7288078
0.0014961958 0.0054805037 0.010832369 7353627
0.0016883146 0.0066165533 0.0097442269 7484688
0.0019531231 0.0077952221 0.0096845031 7419141
0.0021464732 0.0089368429 0.0085960031 7353614
0.0022696331 0.010046981 0.0064787269 7289110
0.0025356896 0.011231216 0.0064186454 7223308
0.0026613753 0.012352487 0.0043006539 7353090
0.0029282775 0.013540436 0.0042404532 7548930
0.0031951647 0.014728386 0.0041803718 7089666
0.0033931043 0.015890419 0.0030909181 6696465
0.0036604069 0.017080221 0.0030305982 6696479
0.0039277244 0.018270031 0.0029702783 6695958
0.0041950289 0.019459832 0.0029100776 6629900
0.0044623464 0.020649638 0.0028497577 6629895
0.0047296509 0.021839444 0.0027894378 6433538
0.0049305279 0.023014478 0.001699388 6236929
0.0052642729 0.024219051 0.0026689172 6106113
0.0054659825 0.0253978 0.001578629 5975562
0.0057337154 0.026589457 0.0015181899 6041620
0.0060014352 0.027781118 0.00145787 6107146
0.0063335299 0.02897827 0.0024277568 6106881
0.0066008344 0.030168071 0.0023674369 6106369
0.0068681519 0.031357884 0.002307117 6237185
0.0017433763 0.00062508695 0.01335305 7288833
0.001934804 0.0017496105 0.012265861 7353601
0.002127083 0.0028778408 0.011178553 7287041
0.0023914762 0.0040546525 0.011118948 7286276
0.0025849976 0.0051884521 0.010031164 7483143
0.0028498061 0.0063671209 0.0099714398 7680004
0.0030445736 0.0075064935 0.0088835359 7484674
0.0031705536 0.0086121336 0.0067670941 7288599
0.0034366101 0.0097963717 0.0067071319 7157548
0.003633894 0.010946874 0.0056185126 7026710
0.0037636235 0.012069218 0.0035012364 6959361
0.0040309429 0.013259025 0.0034409165 6957825
0.0042982455 0.014448825 0.0033805966 6695169
0.0045655649 0.015638635 0.0033203959 6432513
0.004766183 0.016803991 0.0022310615 6432257
0.0050339159 0.017995652 0.0021707416 6432002
0.0053016357 0.019187316 0.0021103024 6432004
0.0055693686 0.020378973 0.0020499825 6432258
0.0059021115 0.021587655 0.0030189157 6301441
0.0061048232 0.022762299 0.0019292235 6170625
0.0063725561 0.023953959 0.0018687844 6039297
0.0065127034 0.025122702 -0.00025087595 5908241
0.0069080107 0.026337273 0.0017480254 5909794
0.0071757277 0.027528942 0.0016877055 5976593
0.0074434625 0.028720599 0.0016272664 5975553
0.0077111963 0.029912259 0.0015669465 6040833
0.0080406116 0.031106092 0.0025365949 6171649
0.0082466481 0.032295581 0.0014461875 6367746
0.002899399 0.00037682988 0.013579309 7420417
0.0030926578 0.0015009604 0.012492478 7483649
0.0032867268 0.0026288014 0.011405408 7351809
0.0035511199 0.0038056131 0.011345804 7286022
0.0037464891 0.0049390178 0.010258496 7549196
0.0039426889 0.0060761422 0.0091709495 7877127
0.004071489 0.007177284 0.0070554614 7550466
0.0042697452 0.0083236881 0.0059674382 7222800
0.0045362171 0.0095097814 0.0059073567 7026463
0.0047357567 0.010661745 0.0048190951 6830866
0.0048695691 0.011785166 0.002702415 6565638
0.0051372889 0.012976825 0.0026420951 6366982
0.0054050218 0.014168486 0.002581656 6298119
0.0056727417 0.015360147 0.0025213361 6232836
0.0059404764 0.016551808 0.002460897 6167553
0.0060792994 0.017697502 0.00034302473 6169091
0.0064759292 0.018935133 0.002340138 6234630
0.0067436639 0.02012679 0.0022798181 6299908
0.0070113819 0.021318451 0.0022193789 6168835
0.0072791157 0.022510115 0.002159059 6105090
0.0075468495 0.023701776 0.0020986199 5973505
0.0076906616 0.02486974 -2.0444393e-05 5908234
0.0080823032 0.026085094 0.0019778609 5843476
0.0083500221 0.027276758 0.0019174218 5843979
0.008617755 0.028468415 0.0018571019 5910017
0.0088854888 0.029660076 0.0017966628 5975297
0.0091532087 0.03085174 0.0017363429 6171905
0.0094209425 0.032043397 0.0016759038 6367758
0.0040553901 0.00012857653 0.013805568 7289601
0.004182037 0.0012029428 0.011691988 7351809
0.0043783616 0.0023322515 0.010605276 7155201
0.004643172 0.0035109166 0.010545552 6958089
0.004706338 0.0045582019 0.007403791 7221778
0.0049723946 0.0057424381 0.0073438287 7549962
0.0052384641 0.0069266744 0.0072838664 7288578
0.005438555 0.0080726817 0.0061962008 7027466
0.0057050269 0.0092587732 0.0061361194 6765586
0.0059063993 0.010410352 0.0050482154 6569487
0.0060438626 0.011532987 0.0029322505 6434828
0.0063115824 0.012724645 0.0028718114 6365964
0.0065793172 0.013916306 0.0028114915 6233869
0.0068470351 0.015107967 0.0027510524 6167559
0.0069886781 0.016249161 0.00063413382 6036993
0.0072572436 0.017444529 0.0005735755 5906437
0.0076502217 0.018682953 0.0025699735 6038537
0.0079179564 0.01987461 0.0025095344 6236423
0.0082470616 0.021084078 0.0034777522 6105093
0.0084534092 0.022257935 0.0023887753 5974019
0.008721143 0.023449592 0.0023284554 5908225
0.0089888619 0.024641257 0.0022680163 5842692
0.0092565957 0.025832918 0.0022076964 5778183
0.0095243147 0.027024575 0.0021472573 5778436
0.0097920485 0.028216235 0.0020869374 5712898
0.010118244 0.029412709 0.0030557513 5581825
0.010385562 0.030602511 0.0029955506 5843713
0.010652865 0.03179232 0.0029352307 6105625
0.0053416956 0.00095390715 0.011918962 7222790
0.0055398531 0.0020828173 0.010832489 6959105
0.005738873 0.0032154415 0.0097458959 6697478
0.0058733132 0.0043075886 0.0076321959 6960138
0.0061393697 0.0054918248 0.0075722337 7222790
0.0063408762 0.0066355802 0.006485045 7026689
0.0065432526 0.0077830553 0.0053976178 6831625
0.0068101399 0.0089710038 0.0053374171 6571281
0.0070137316 0.010124046 0.0042498708 6375436
0.0070923911 0.011214698 0.0011069179 6376198
0.0073609566 0.012410071 0.0010463595 6375943
0.0076295072 0.013605444 0.00098580122 6244615
0.0078980727 0.014800817 0.0009252429 6179076
0.0081666382 0.015996188 0.00086468458 5916929
0.0084352037 0.017191559 0.00080412626 5717507
0.0088245291 0.018430769 0.002799809 5911557
0.0090922639 0.019622426 0.0027393699 6173444
0.0093599828 0.020814087 0.00267905 6042115
0.0096277175 0.022005752 0.0026186109 5909508
0.0098954514 0.023197409 0.0025581717 5842694
0.01016317 0.024389073 0.0024978518 5777926
0.010315132 0.025559176 0.00038009882 5778694
0.010813557 0.026790231 0.004434526 5778693
0.011080445 0.027978178 0.0043743253 5513732
0.011347347 0.029166128 0.0043141246 5254402
0.011614235 0.030354075 0.0042539239 5515009
0.011825325 0.031540528 0.0031647086 5842197
0.0065013543 0.00070487149 0.012145936 7355659
0.006508192 0.0016885027 0.0079806447 7090434
0.0067742486 0.002872739 0.0079205632 6889986
0.0070403041 0.0040569752 0.0078606009 6961155
0.0073063606 0.0052412096 0.0078006387 7093506
0.0075096851 0.0063845776 0.0067136884 6898689
0.0077761719 0.0075706709 0.0066536069 6704137
0.0079807667 0.0087196063 0.0055665374 6508305
0.0082476689 0.009907553 0.0055063367 6377993
0.0085145561 0.011095503 0.005446136 6312961
0.0085389167 0.012157101 0.0012769103 6313729
0.0088074664 0.013352474 0.001216352 6182146
0.0090760319 0.014547847 0.0011556745 6116097
0.0093445973 0.015743218 0.0010951161 6050305
0.0075980276 0.00040528551 0.011346877 7486743
0.007675183 0.0014378931 0.0082089305 7287560
0.0078790784 0.0025752932 0.0071228147 7091977
0.0081455652 0.0037613884 0.0070627332 7027722
0.0084120361 0.004947478 0.0070025325 6964229
0.0086176032 0.0060923155 0.005916059 6770177
0.0088845054 0.0072802659 0.0058558583 6574341
0.0091513935 0.0084682126 0.0057956576 6509577
0.0094182957 0.0096561611 0.0057354569 6443781
0.0096851829 0.01084411 0.0056752563 6313729
0.0086983815 0.00010491908 0.010548532 7421475
0.0087814154 0.0011381991 0.0074116588 7224335
0.0090478873 0.0023242906 0.0073514581 7092752
0.009314375 0.0035103839 0.0072913766 6898193
0.0095808459 0.0046964753 0.0072312951 6769417
0.009788245 0.0058409199 0.0061450601 6639617
0.010055147 0.0070288684 0.0060848594 6509825
0.0099502243 0.00088719465 0.0076403022 7223560
0.010216696 0.002073288 0.0075802207 7094024
0.010483183 0.0032593813 0.0075201392 6834185
0.010749655 0.0044454709 0.0074600577 6573829
0.011119034 0.00063618831 0.0078690648 7291905
0.011328853 0.0017742775 0.0067839026 7161089
0.01159574 0.002962226 0.006723702 6834689
0.011918464 0.0041944664 0.0076888204 6574849
0.012287842 0.0003851857 0.0080978274 7422995
0.012554314 0.0015712809 0.008037746 7292428
0.012820801 0.0027573723 0.0079775453 6900741
0.013403249 8.3534047e-05 0.0073022246 7489061
0.013670136 0.0012714844 0.0072420239 7620631
0.013937024 0.0024594329 0.0071818233 7097353
0.014883382 0.00013839826 0.013674915 7555347
0.014840778 0.0010200851 0.0074711442 8013580
0.015107666 0.0022080373 0.0074109435 7359749
0.017514631 0.00086710416 0.015092432 7620869
0.018672457 0.00061845779 0.01531893 7425034
0.019830296 0.00036980771 0.015545547 7293721
