# .PCD v0.7 - Point Cloud Data file format
VERSION 0.7
FIELDS x y z rgba
SIZE 4 4 4 4
TYPE F F F U
COUNT 1 1 1 1
WIDTH 225
HEIGHT 1
VIEWPOINT 0 0 0 1 0 0 0
POINTS 225
DATA ascii
0.0031747322 0.002520693 -0.0035215844 6430244
0.0044063777 0.0032313666 -0.0035718307 6432041
6.4144842e-08 0.0023206305 -0.0035852622 5971487
0.0012317095 0.0030313041 -0.0036355085 6235175
0.0024633554 0.0037419708 -0.0036857571 6563615
0.0036950083 0.0044526453 -0.0037360028 6564376
-0.0018651737 0.0023408388 -0.0056536342 5643290
-0.0006368208 0.0030496195 -0.0057037729 6102564
0.00059153268 0.0037583932 -0.005753913 6366255
0.0018198781 0.0044671595 -0.0058039939 6695963
0.0030482274 0.005175896 -0.0058541428 6827783
0.0042765811 0.0058846558 -0.0059042252 6962195
0.0055049295 0.0065934001 -0.0059543722 6897951
-0.0050313473 0.0021413672 -0.0057171737 4264195
-0.0038029833 0.0028500911 -0.0057672644 5315849
-0.0025746371 0.0035588639 -0.0058174045 5774351
-0.0013462909 0.0042676367 -0.0058675455 6233110
-0.00011793739 0.0049763969 -0.0059176278 6563102
0.0011104179 0.0056851483 -0.005967773 6892305
0.0023387645 0.0063939006 -0.0060178572 7091204
0.0035039096 0.0076058675 -0.0041146567 7355146
0.004735549 0.0083165262 -0.0041649067 7161104
-0.0081975125 0.0019418313 -0.0057806671 5388801
-0.0069691632 0.0026506046 -0.0058308076 4264193
-0.0057408074 0.0033593425 -0.0058808951 4722177
-0.0045124609 0.0040681083 -0.005931037 5251074
-0.0032841072 0.004776868 -0.0059811193 5643524
-0.0020557535 0.0054856413 -0.0060312594 6101769
-0.00082740514 0.0061943852 -0.006081407 6497038
0.00040094153 0.0069031371 -0.0061314912 6826504
0.0015608806 0.0081164632 -0.0042285845 7286786
0.0027925347 0.0088271238 -0.0042788344 7748098
0.0039932793 0.0097919926 -0.0033527198 7357698
0.0052265646 0.010503611 -0.0034030508 7033864
-0.010135338 0.0024511041 -0.0058942926 6578443
-0.0089069856 0.0031598485 -0.0059444397 5916673
-0.0076786317 0.0038686083 -0.005994522 5318660
-0.0064502833 0.0045773447 -0.0060446709 5245959
-0.0052219303 0.005286112 -0.0060947514 5184261
-0.0039935773 0.0059948852 -0.006144892 5578243
-0.0027652313 0.0067036585 -0.0061950325 6036492
-0.0015368827 0.0074123885 -0.0062451218 6431253
-0.00030852866 0.0081211552 -0.0062952638 6825742
0.00084950461 0.0093377344 -0.0043927585 7482631
0.0020811579 0.010048401 -0.0044430061 8139780
0.0032809502 0.011014896 -0.0035171234 7620097
0.0044538174 0.012240054 -0.0016151195 7165956
0.0056904098 0.012953568 -0.0016655581 7036680
-0.010844806 0.0036690924 -0.0060580722 6709506
-0.009616456 0.0043778522 -0.0061081545 6181377
-0.0083881039 0.0050865961 -0.0061583016 5652231
-0.0071597537 0.0057953484 -0.0062083858 5250317
-0.0059314007 0.0065041296 -0.006258524 4789768
-0.0047030542 0.007212902 -0.006308665 5381635
-0.0034746991 0.0079216324 -0.0063587534 5971472
-0.0022463456 0.0086304061 -0.006408894 6299933
-0.0010179963 0.0093391296 -0.0064589852 6628372
0.00013813595 0.010559021 -0.0045569902 7088396
0.0013697892 0.011269687 -0.0046072383 7548422
0.0026014359 0.011980345 -0.0046574883 7360513
0.0037395898 0.013466226 -0.0017799825 7101697
0.0049761822 0.01417974 -0.0018304208 6971649
-0.0066408636 0.0077221473 -0.0064222966 4466440
-0.0054125153 0.0084308777 -0.006472386 5185282
-0.0041841697 0.009139657 -0.0065225246 5905929
-0.0029558132 0.0098483823 -0.0065726154 6166801
-0.001727459 0.010557147 -0.0066227578 6498320
-0.00049911358 0.011265928 -0.006672896 6764559
0.00065841322 0.012490958 -0.0047714119 7031048
0.0018900593 0.013201624 -0.00482166 7035649
0.003121705 0.01391229 -0.0048719081 7102209
0.0042619524 0.01540594 -0.0019952771 6906881
-0.0073503414 0.008940151 -0.006586011 5384457
-0.0061219931 0.0096488949 -0.0066361581 5841665
-0.0048936401 0.010357661 -0.006686239 6299139
-0.0036652831 0.011066398 -0.006736388 6432005
-0.0024369373 0.011775171 -0.0067865285 6565131
-0.001208591 0.01248393 -0.0068366108 6638098
-5.296286e-05 0.013712227 -0.0049355859 6708233
0.001178683 0.014422895 -0.004985834 6840065
0.0024103292 0.01513356 -0.0050360821 6971905
-0.0056909304 0.012090832 -0.0048987679 6704898
-0.0044592842 0.012801498 -0.004949016 6639364
-0.0032276383 0.013512166 -0.0049992641 6641158
-0.0019959849 0.014222832 -0.0050495118 6511881
-0.00080166059 0.015194923 -0.0041244002 6447109
0.00043164135 0.015906515 -0.0041747377 6644737
0.0016989629 0.016354803 -0.0052002631 6841089
-0.003941861 0.00019525923 0.0038852454 7486222
-0.0050434396 0.0010110806 0.0030568843 7291400
-0.0062336922 0.0014705155 0.0031599277 7162883
-0.0011974245 0 0.0051179146 7353658
-0.0022930016 0.00081535755 0.0042899349 7879460
-0.003481487 0.0012741024 0.0043928777 7617294
-0.0044071954 0.0028088503 0.0017044334 7356424
-0.0057726279 0.002550975 0.0036683064 7227394
-0.0069628805 0.0030103959 0.0037713465 7098369
0.0016356938 0.00016110577 0.0054192976 6239494
0.00054434256 0.00097669847 0.0045918007 6632724
-0.00064414227 0.0014354493 0.0046946844 7353633
-0.0017408044 0.0022531282 0.0038674925 8140822
-0.002931057 0.0027125636 0.0039705364 7748363
-0.0039447648 0.0038925079 0.0022143563 7421195
-0.0051385611 0.0043533174 0.0023176605 7291915
-0.0063323565 0.0048141209 0.0024210247 7227910
0.0045701638 0.00067930203 0.0047907247 5189889
0.0033816791 0.0011380524 0.0048936079 5517313
0.0021932018 0.0015968038 0.0049964921 5910017
0.0011007655 0.0024147173 0.0041697836 6302725
-8.9486653e-05 0.0028741453 0.0042728256 6828041
-0.0012797395 0.0033335807 0.0043758694 7418377
-0.002288531 0.0045153834 0.0026208595 7354633
-0.0034823271 0.0049761795 0.0027242219 7223823
-0.0046761222 0.0054369755 0.0028275843 7355413
-0.0058699185 0.0058977786 0.002930948 7486987
0.0089180619 0.0014518611 0.0022005178 5715713
0.0075131012 0.0011980021 0.0041629439 5252609
0.0063228495 0.0016574301 0.0042659859 4860929
0.0051325886 0.0021168645 0.0043690293 4993281
0.003942336 0.0025762999 0.0044720727 5189377
0.0027520831 0.0030357349 0.004575117 5581313
0.0017552947 0.0042166458 0.0028206939 5974531
0.0005614984 0.0046774494 0.0029240577 6369030
-0.00063229795 0.0051382524 0.0030274219 6763014
-0.0018260928 0.0055990545 0.0031307247 6895366
-0.0029302507 0.0064233243 0.0023059943 7091986
-0.0041258149 0.006884818 0.0024094586 7419166
-0.0053213779 0.0073462981 0.0025129812 7748121
0.0093804998 0.0025355192 0.0027104411 5786625
0.0082929805 0.0033552563 0.001885017 5320961
0.0069929166 0.0034571118 0.0029171663 4926721
0.0057991138 0.0039179139 0.0030204686 4861185
0.0046053166 0.0043787239 0.0031238343 4861441
0.003411521 0.0048395204 0.0032271966 5254145
0.0023151399 0.0056626704 0.0024025715 5712130
0.0011195764 0.0061241509 0.0025060941 6040836
-7.5994758e-05 0.0065856311 0.0026096166 6435588
-0.0012715585 0.0070471247 0.002713081 6763780
-0.0023767871 0.0078737233 0.0018891407 7026710
-0.0035741257 0.0083358809 0.0019928217 7223080
-0.0047714645 0.0087980516 0.0020964448 7485223
-0.0059688045 0.0092602298 0.0022001308 7158823
0.008756103 0.0044405237 0.0023956844 5454849
0.0075605307 0.0049020033 0.0024992069 4993281
0.0063649667 0.005363497 0.0026026713 4793345
0.0051694037 0.005824978 0.0027061938 4598018
0.0039738324 0.0062864576 0.0028097164 4992771
0.0027782605 0.0067479452 0.0029132408 5451018
0.0015826968 0.0072094253 0.0030167634 5778450
0.00038713444 0.0076709054 0.003120224 6172431
-0.00080842921 0.0081323851 0.0032237465 6569484
-0.0019129829 0.0089606009 0.0024005524 7026971
-0.003110314 0.0094227716 0.0025041751 7094826
-0.004132702 0.010621065 0.00075523055 7223590
-0.0053335838 0.01108459 0.0008592318 6894882
-0.0065344665 0.011548128 0.00096317509 6637842
0.0092192227 0.0055258116 0.0029062955 5590017
0.0080236513 0.0059872917 0.003009818 5190913
0.0068280883 0.0064487723 0.0031133406 4397825
0.0056325169 0.0069102515 0.0032168631 3612675
0.004436953 0.007371732 0.0033203852 4334085
0.0032413893 0.0078332257 0.0034238496 5121042
0.0020458181 0.0082947062 0.0035273726 5384224
0.00085025444 0.0087561877 0.0036308947 5647386
-0.00025183277 0.0095853209 0.0028082826 6371604
-0.0012657607 0.010784097 0.0010601856 7158304
-0.0024666428 0.01124762 0.0011641869 7420716
-0.0035793667 0.012080831 0.00034259039 7748645
-0.0048684068 0.012174685 0.0013721312 7224862
-0.0060692811 0.012638224 0.0014760747 6701073
0.0096823443 0.0066110785 0.0034169625 5725441
0.0084867729 0.0070725586 0.0035204855 5391876
0.007291209 0.0075340387 0.0036240076 4002312
0.006095645 0.0079955328 0.0037274724 2692359
0.0049000736 0.0084570125 0.0038309945 3741958
0.0037045029 0.0089184921 0.003934517 4793102
0.0025089388 0.0093799802 0.004038041 4988950
0.0013133751 0.0098414607 0.004141564 5187347
0.00021197138 0.010672197 0.0033196942 6239505
-0.00098535977 0.011134367 0.0034233173 7288872
-0.0020014651 0.012337716 0.0016770865 7752512
-0.0031134991 0.01317253 0.00085629418 8273959
-0.0043161483 0.013636746 0.00096039579 7485967
-0.0055187987 0.014100976 0.0010645011 6767625
0.010145465 0.0076963459 0.0039276299 6250241
0.008949901 0.0081578474 0.0040310961 6248200
0.0077543296 0.0086193271 0.0041346187 4860175
0.0065587591 0.0090807928 0.0042381375 3476747
0.0053631961 0.0095422734 0.0043416605 4197896
0.0042677997 0.010372588 0.0035200594 4858634
0.0030704613 0.010834744 0.0036237403 5120524
0.0018731216 0.011296917 0.0037274249 5317133
0.00067578297 0.011759087 0.0038310476 6106382
-0.00033539929 0.012964288 0.0020860466 6895153
-0.0015362811 0.013427828 0.0021899901 7224660
-0.0026476316 0.014264243 0.0013699395 7619882
-0.0039380454 0.014354892 0.0023979344 7161601
-0.0051389271 0.014818417 0.0025019357 6703361
0.010608586 0.0087816343 0.0044382415 6775041
0.0070218872 0.010166075 0.0047488087 4331014
0.0059289429 0.010997294 0.0039278478 4654084
0.0047316039 0.011459464 0.0040314705 4987911
0.0035342642 0.011921637 0.0041351551 5248267
0.0023369258 0.012383793 0.004238836 5511950
0.0011395871 0.012845963 0.0043424596 5973521
-5.7752477e-05 0.013308136 0.0044461438 6501928
-0.0010711038 0.014517909 0.0027029477 6763072
-0.0022719859 0.014981449 0.0028068912 7029025
-0.0036497617 0.014694635 0.0047571319 6833410
-0.0048471 0.015156791 0.0048608128 6705921
0.0051954146 0.012546355 0.0045428858 5379333
0.0039980756 0.013008513 0.0046465672 5510410
0.0028007373 0.013470683 0.0047501898 5641487
0.0016033977 0.013932856 0.004853874 6041109
0.0004060592 0.014395012 0.0049575549 6501920
-0.00079127948 0.014857182 0.005061178 6634028
-0.0020795304 0.014943218 0.0060874801 6766103
-0.0032750939 0.015404698 0.0061910027 6508547
-0.0043832883 0.016243681 0.0053721662 6249986
0.0032645403 0.014557574 0.0052616042 5845770
0.0020672018 0.015019732 0.0053652856 6174479
0.00086987065 0.015481889 0.0054689664 6503187
-0.00032746908 0.015944075 0.0055725933 6504216
-0.0015248077 0.016406231 0.0056762737 6507789
-0.0027221462 0.016868386 0.0057799551 6183938
