# .PCD v0.7 - Point Cloud Data file format
VERSION 0.7
FIELDS x y z rgba
SIZE 4 4 4 4
TYPE F F F U
COUNT 1 1 1 1
WIDTH 475
HEIGHT 1
VIEWPOINT 0 0 0 1 0 0 0
POINTS 475
DATA ascii
0.0075619649 0.0023772521 -0.0014519757 6903342
0.008801857 0.0030864468 -0.0013451804 6969879
0.0043660477 0.0021946691 -0.0015584431 6566954
0.0056059393 0.0029038899 -0.0014517014 6764089
0.0068987212 0.0036343401 -0.0033525117 7031112
0.0081353132 0.0043416629 -0.0032460249 7231012
0.0093719056 0.0050489856 -0.003139538 6970369
-6.9764268e-05 0.0013029445 -0.001771746 6106369
0.0011701202 0.0020121392 -0.001664951 6238210
0.0024100197 0.00272136 -0.0015582093 6369292
0.0036499042 0.0034305798 -0.0014514681 6500631
0.0048898035 0.0041398006 -0.0013447264 6698533
0.0061844913 0.0048669623 -0.0032458012 7093299
0.0074210833 0.0055742851 -0.0031393142 7557658
0.0086576762 0.0062816087 -0.0030328273 7166209
-0.0032656912 0.0011204146 -0.0018782541 5646081
-0.0020257996 0.0018296093 -0.0017714589 5777409
-0.00078590767 0.0025388291 -0.0016647174 5909505
0.00045398431 0.0032480499 -0.001557976 6040833
0.0016938762 0.0039572706 -0.0014512343 6237698
0.0029337683 0.0046664653 -0.0013444391 6434820
0.0041736602 0.0053756861 -0.0012376979 6633233
0.0054702559 0.0060995324 -0.0031390502 6962206
0.0067068483 0.0068068812 -0.0030326168 7294479
0.0079434402 0.0075142044 -0.0029261301 7034881
0.0091800336 0.0082215276 -0.0028196431 6840577
0.01041664 0.0089288782 -0.002713209 6710018
-0.0065057469 0.00092366431 -0.00098183425 5056257
-0.0052217171 0.0016470524 -0.0018779796 5253377
-0.0039818254 0.0023562731 -0.0017712384 5449473
-0.0027419331 0.003065493 -0.001664497 5580033
-0.001502041 0.0037747137 -0.0015577553 5777153
-0.0002621492 0.0044839084 -0.0014509601 5908993
0.00097775017 0.0051931292 -0.0013442182 6106115
0.0022176348 0.005902349 -0.0012374767 6369285
0.0034575269 0.0066115698 -0.0011307355 6632461
0.0046974262 0.0073207654 -0.0010239398 6831125
0.0059926133 0.0080394503 -0.0029258661 7029259
0.0072292127 0.0087468 -0.0028194322 6969089
0.0084170941 0.0094484268 -0.00070371572 6905345
0.0096569946 0.010157621 -0.00059692003 6775554
-0.011047538 0 0.00081002153 6046721
-0.0097059188 0.00074088108 -0.0010884646 5187330
-0.0084643811 0.0014510499 -0.00098159537 4925187
-0.0072228392 0.0021611927 -0.00087467302 4728834
-0.0059812972 0.0028713625 -0.00076780468 4990977
-0.0046979613 0.0035921577 -0.0016642094 5319681
-0.0034580764 0.0043013776 -0.0015574682 5514241
-0.0022181771 0.0050105993 -0.0014507263 5776897
-0.00097829243 0.0057198191 -0.0013439851 5843201
0.00026160682 0.0064290399 -0.0012372434 5974531
0.0015014913 0.0071382341 -0.0011304482 6237446
0.0027413908 0.0078474553 -0.0010237065 6500617
0.0039812829 0.0085566752 -0.00091696484 6632460
0.0052211746 0.0092658959 -0.00081022317 6764295
0.0064610667 0.0099750906 -0.00070342794 6768642
0.0077009583 0.010684311 -0.00059668627 6773506
0.0089408504 0.011393532 -0.00048994552 6708226
-0.010423008 0.0019784356 -0.00098135695 5848834
-0.009181466 0.0026885793 -0.0008744346 5121540
-0.0079399245 0.003398749 -0.0007675658 4400642
-0.0066983863 0.0041088918 -0.00066064298 4794113
-0.0054140971 0.0048280694 -0.0015572342 5252353
-0.004174205 0.0055372892 -0.0014504925 5514241
-0.0029343129 0.0062464844 -0.0013436973 5776897
-0.0016944211 0.0069557047 -0.0012369561 5777665
-0.00045452901 0.0076649254 -0.0011302144 5843458
0.00085436978 0.0083827004 -0.0030318522 6105859
0.002025255 0.009083366 -0.00091673108 6434054
0.0033275641 0.0097973458 -0.0028189444 6501384
0.0045050387 0.010501781 -0.00070319464 6567687
0.0057449308 0.011211002 -0.00059645297 6568453
0.0069585713 0.011920623 0.00051518204 6637829
0.0081262775 0.012634924 0.0036374191 6641669
0.0093727615 0.013347913 0.0037447233 6707971
-0.0098985517 0.0039260825 -0.00076728594 5520645
-0.0087510124 0.0046177842 0.0013464172 4989955
-0.007415473 0.0053463941 -0.00055349478 5121793
-0.0061739269 0.0060565639 -0.00044662599 5187329
-0.0048903464 0.0067731473 -0.0013434771 5383681
-0.0036908456 0.007476903 -0.0002328218 5580289
-0.002410562 0.0081915883 -0.0011299942 5645569
-0.0011706625 0.008900784 -0.0010231985 5776641
6.9221889e-05 0.0096100038 -0.00091645727 5973761
0.0013091213 0.010319225 -0.00080971513 6170883
0.0025490134 0.011028446 -0.00070297392 6236933
0.0037889052 0.011737666 -0.00059623178 6303239
0.0050287964 0.012446867 -0.00048943423 6370313
0.0062414818 0.013158159 0.00062234653 6437385
0.0074830279 0.013868297 0.00072926609 6573833
0.0087245665 0.014578464 0.00083613442 6707461
-0.0094700046 0.0058585759 0.0014538299 5651714
-0.008225169 0.0065706428 0.0015610196 5383937
-0.006891022 0.0072941198 -0.00033945218 5187073
-0.00564948 0.0080042891 -0.00023258291 5252609
-0.0044079344 0.0087144328 -0.00012566056 5383688
-0.0031266881 0.0094274469 -0.0010229778 5515023
-0.0018867985 0.010136695 -0.00091622351 5710602
-0.00064690417 0.010845888 -0.00080949441 5775878
0.00059298775 0.011555083 -0.00070269965 5907717
0.001832878 0.012264323 -0.00059594819 5974021
0.0031356909 0.012969887 -0.0024990495 6105863
0.0043722899 0.013677218 -0.0023925588 6172425
0.0055525531 0.014391966 -0.00027566636 6239762
0.0067659318 0.015105851 0.00083637331 6440476
0.008007477 0.015816003 0.00094329892 6706457
-0.010188994 0.0070994208 0.0015612692 5922049
-0.0089441566 0.0078114606 0.0016684458 5650689
-0.0076993187 0.0085235015 0.0017756228 5383169
-0.0063665668 0.0092417914 -0.00012543518 5252097
-0.0051250285 0.0099519603 -1.8566381e-05 5186575
-0.0038834901 0.010662103 8.8356435e-05 5251869
-0.0026029346 0.01137258 -0.00080919452 5382676
-0.00136305 0.0120818 -0.00070245285 5513739
-0.00012315059 0.012791021 -0.00059571117 5710344
0.0011167414 0.013500242 -0.0004889695 5841925
0.0024214638 0.01420245 -0.0023923018 5973767
0.0035965259 0.01491865 -0.00027543632 6106121
0.0048364173 0.015627876 -0.00016869139 6239004
0.0060763094 0.016337097 -6.1950181e-05 6372399
0.007316201 0.017046317 4.4791494e-05 6509101
-0.0097113559 0.0090489006 0.0027798004 5917698
-0.0084183142 0.0097643193 0.0018830486 5585153
-0.0070836558 0.010479322 -1.827348e-05 5315073
-0.0058421097 0.011189491 8.859532e-05 5054728
-0.0046005719 0.011899633 0.0001955172 5054991
-0.0033190681 0.012608464 -0.00070223166 5053964
-0.0020791835 0.013317685 -0.00059549091 5315337
-0.00083929213 0.014026885 -0.00048869243 5577990
0.00040060846 0.014736093 -0.00038195681 5709571
0.0016404924 0.01544532 -0.00027521281 5907460
0.0028803919 0.016154543 -0.00016847067 6040069
0.0041202763 0.016863734 -6.1676372e-05 6237713
0.0053601749 0.017572964 4.5069028e-05 6304286
0.0066000754 0.018282177 0.00015180744 6377500
0.00783996 0.018991396 0.00025854912 6444314
-0.010431302 0.010291389 0.002887371 6313987
-0.0091373082 0.011005136 0.0019904738 6180610
-0.0078924708 0.011717177 0.0020976514 5383681
-0.0066476255 0.012429219 0.0022048289 4660737
-0.005317661 0.01313719 0.00030262535 4660226
-0.0040352023 0.013844328 -0.00059521291 4725252
-0.002795317 0.014553542 -0.00048847497 4987399
-0.0015554174 0.015262764 -0.00038173283 5315076
-0.00031552563 0.015971985 -0.00027499162 5511682
0.00092436635 0.016681179 -0.00016819639 5773825
0.0021642589 0.017390393 -6.1457977e-05 5907713
0.0034041505 0.018099621 4.5286957e-05 6105351
0.0046440423 0.018808842 0.00015202817 6237966
0.0059393761 0.019496966 -0.0017530085 6376972
0.0071759759 0.020204291 -0.0016465215 6509322
-0.0098563032 0.012245955 0.0020979005 6772229
-0.0086114649 0.012957996 0.0022050776 5518081
-0.0073666205 0.013670043 0.0023122579 4269571
-0.0060347472 0.014374691 0.00040977355 4329733
-0.004793209 0.015084835 0.00051669544 4396292
-0.0035114528 0.015789455 -0.00038149953 4724484
-0.0022715617 0.016498655 -0.00027470104 5051907
-0.0010316616 0.01720787 -0.00016796263 5379330
0.00027877069 0.017900269 -0.002072193 5707521
0.0015153629 0.018607594 -0.001965706 5841153
0.0027519548 0.019314919 -0.0018592188 5974021
0.0039885542 0.02002224 -0.0017527314 6171913
0.0052825068 0.020705234 -0.0036585284 6373129
0.0065157986 0.021410666 -0.0035522929 6574601
0.0077490914 0.022116102 -0.0034461203 6771205
-0.0093304524 0.01419882 0.0023125065 5981953
-0.007993374 0.014902079 0.00041001244 4926981
-0.0067518358 0.015612221 0.00051693432 4659465
-0.0055102897 0.016322384 0.00062379986 4461573
-0.0042275889 0.01702534 -0.00027447054 4658433
-0.002987697 0.017734559 -0.00016772933 4853249
-0.0016720586 0.018425543 -0.0020719154 5182722
-0.0004354667 0.019132867 -0.0019654287 5575937
0.00087027665 0.019818209 -0.003870619 5709569
0.0021365054 0.020511698 -0.0047703525 5908226
0.0033681516 0.021216199 -0.0046643009 6105348
0.0045998073 0.021920677 -0.0045582624 6299398
0.005831446 0.022625182 -0.0044522109 6503433
0.0070630996 0.023329679 -0.0043461621 6769669
-0.0087104663 0.016139606 0.0005171732 5653512
-0.0074689253 0.016849756 0.00062409882 5054991
-0.0061836145 0.017552003 -0.00027425028 4528136
-0.0049437224 0.018261198 -0.00016745459 4592641
-0.003622886 0.018950816 -0.0020717049 4723713
-0.0023086369 0.019636638 -0.003976597 5051649
-0.0010753372 0.020342093 -0.0038704188 5445377
0.00015795493 0.021047518 -0.0037641861 5643777
0.0013912539 0.021752976 -0.0036580041 5907457
0.002656783 0.022443891 -0.0045580543 6104578
0.0038884305 0.023148373 -0.004452012 6301188
0.0051200772 0.02385287 -0.0043459637 6497798
0.0063517229 0.024557374 -0.0042399131 6766339
-0.0068997503 0.018787883 -0.00016722456 4332555
-0.0056598582 0.019497108 -6.0480088e-05 4395521
-0.0043371129 0.020183381 -0.001964957 4462593
-0.0030209657 0.020865947 -0.0038701645 4855041
-0.0017876669 0.021571405 -0.0037639826 5315073
-0.0005543661 0.022276819 -0.0036577559 5577729
0.00067893293 0.022982277 -0.003551574 5841409
0.0019454067 0.023671553 -0.0044517536 5973249
0.0031770528 0.024376057 -0.0043457025 6170882
0.0044087013 0.025080532 -0.0042396635 6432004
0.005640347 0.025785036 -0.0041336119 6697474
-0.006376002 0.020732995 4.6548434e-05 4198658
-0.0050513437 0.021416008 -0.0018582423 4264705
-0.0037332952 0.022095259 -0.0037637283 4724225
-0.0024609168 0.022785731 -0.004663595 5183745
-0.0012292613 0.023490209 -0.0045575565 5446401
2.3852917e-06 0.024194706 -0.0044515082 5774337
0.0012340306 0.024899215 -0.0043454533 5905921
0.002530646 0.025566179 -0.0062526362 6103298
0.0036973245 0.026308201 -0.0041333605 6366467
0.0049873553 0.026971392 -0.0060411086 6630660
0.0062157013 0.027674023 -0.0059353672 6769668
-0.0044039395 0.023308892 -0.0046633459 4330753
-0.0031722935 0.0240134 -0.0045572915 4856065
-0.0019406446 0.024717871 -0.0044512562 5183745
-0.00070899137 0.025422376 -0.0043452047 5509889
0.00052266143 0.026126888 -0.0042391485 5772801
0.0018211759 0.026790582 -0.0061466554 6035714
0.0029859564 0.027535859 -0.004027063 6234627
0.004277878 0.028195791 -0.0059351269 6433029
0.0055062235 0.028898425 -0.0058293836 6567432
-0.0063469615 0.023832049 -0.0046630967 3345671
-0.0051153079 0.024536554 -0.0045570452 3935237
-0.0038836694 0.025241055 -0.0044509945 4526597
-0.0026520134 0.025945533 -0.0043449542 4855557
-0.0014203601 0.026650038 -0.0042389035 5247240
-0.00018871349 0.027354535 -0.0041328548 5640971
0.0011117058 0.028014954 -0.0060406188 6036238
0.0022745803 0.028763548 -0.0039208159 6168337
0.0035684078 0.02942019 -0.0058291443 6299668
0.0047967611 0.030122798 -0.0057233479 6365464
-0.0070583369 0.025059707 -0.0045567993 4196877
-0.0058266916 0.025764216 -0.004450744 4197385
-0.004595038 0.02646872 -0.0043446934 4197897
-0.0033633902 0.027173229 -0.0042387042 4656905
-0.0021317436 0.027877726 -0.0041326564 5115919
-0.00090009003 0.02858223 -0.0040266048 5575702
0.0004022455 0.029239327 -0.0059346501 5971482
0.0015632045 0.02999121 -0.0038145147 6168095
-0.00653806 0.026991908 -0.0043444978 4523529
-0.0053064213 0.027696408 -0.0042384472 3934472
-0.0040747654 0.028400879 -0.0041324105 4459527
-0.002843112 0.029105391 -0.0040263562 5050383
-0.0016114663 0.029809892 -0.0039203055 5510424
-0.0071584596 0.028175049 -0.0062514301 4659465
-0.0059301141 0.028877679 -0.0061456868 3605255
-0.0047017587 0.029580265 -0.0060398979 4394501
-0.0034734041 0.030282889 -0.0059341583 5184271
-0.0078679221 0.029399447 -0.0061454475 4860933
-0.0066395742 0.030102026 -0.0060396632 3279364
-0.0098057454 0.029921193 -0.0061451551 6512917
-0.0052651055 0.0011416636 -0.002165203 8014869
-0.006434103 0.0015599141 -0.0019679307 8146208
-0.0036432708 0.0016500195 -0.0016436079 7556611
-0.0048122727 0.00206827 -0.0014463358 7949826
-0.0059812739 0.0024865465 -0.0012491178 8080898
-0.0071502677 0.002904824 -0.001051899 8214017
-0.0010432585 0.00069564767 0.00038382784 6505237
-0.0022087097 0.0011126399 0.00058049196 7032332
-0.003190445 0.0025766259 -0.00092474138 7425539
-0.0043594465 0.0029949024 -0.00072752265 7884296
-0.0054401145 0.0039378991 -0.0013805623 8015628
-0.0066108881 0.004356809 -0.0011830386 8147463
0.0017391103 0.00078545976 0.0007072147 5582101
0.00057365984 0.0012024716 0.00090382202 5911322
-0.00039961649 0.0026667304 -0.00060041808 6503200
-0.0015686178 0.0030849809 -0.00040314626 7032594
-0.0027376118 0.0035032583 -0.00020592753 7491076
-0.0038158295 0.0044470374 -0.00085819233 7949581
-0.0049865991 0.0048659472 -0.00066066813 8015127
-0.006157368 0.0052848244 -0.00046309363 8080653
0.0045214868 0.00087529887 0.0010305485 4664580
0.0033560288 0.0012922836 0.0012272089 5057800
0.0021905701 0.0017092759 0.0014238735 5451021
0.0012222107 0.0031750863 -7.8823883e-05 5910546
5.3209311e-05 0.0035933368 0.0001184484 6501143
-0.0011157845 0.0040116142 0.00031566713 7094542
-0.002284786 0.0044298647 0.00051293941 7556870
-0.0033623201 0.0053750454 -0.00013825158 8080651
-0.0045330902 0.0057939542 5.9272628e-05 8080657
-0.0057038595 0.0062128636 0.00025679683 8080653
-0.0068746288 0.0066317474 0.00045437459 7556361
0.0073038484 0.00096510351 0.0013539316 4201996
0.0061383978 0.0013820892 0.0015505925 3612678
0.0049729394 0.0017990815 0.0017472571 4271361
0.0040130466 0.0032651657 0.00024555298 4925955
0.0028440452 0.0036834432 0.00044277124 5384966
0.0016750433 0.0041017001 0.00064004678 5843466
0.0005060425 0.0045199702 0.00083726179 6434319
-0.00066295889 0.0049382197 0.0010345336 7025419
-0.0018319527 0.0053564971 0.0012317523 7556872
-0.0029087972 0.0063030934 0.00058164261 8080138
-0.0041699558 0.0061930246 0.0016262429 8146188
-0.0052503361 0.007140886 0.00097674457 8277005
-0.006421105 0.0075597889 0.0011742655 7621903
0.0089207673 0.0014719013 0.0018739793 5391116
0.0077553084 0.0018889196 0.0020705899 4203278
0.0065898579 0.0023059053 0.0022672513 3024135
0.0056348662 0.0037735207 0.0007671481 3878401
0.0044658724 0.0041917982 0.00096436637 4794887
0.0032968712 0.0046100486 0.0011616382 5319949
0.0021278691 0.0050283317 0.0013588597 5843218
0.00095887569 0.0054465765 0.0015561292 6367256
-0.00021012576 0.005864853 0.0017533475 6960930
-0.0013791269 0.0062831035 0.0019506197 7491372
-0.0024552811 0.0072311084 0.0013015871 8080672
-0.0036260507 0.0076500177 0.0014991108 8277269
-0.0047968267 0.008068894 0.0016966853 8473874
-0.0059675961 0.0084878029 0.0018942095 7687438
0.0084256949 0.0038636001 0.001091524 4795665
0.0072567007 0.0042818775 0.0012887428 4008457
0.0060876994 0.0047001541 0.0014859606 4336129
0.0049186987 0.0051183971 0.0016832296 4663818
0.003852081 0.0060646413 0.0010338104 5188372
0.0026813117 0.0064835502 0.0012313342 5711131
0.0016093841 0.007431698 0.00058276858 6171426
0.00043684663 0.0078512412 0.00078059826 6568761
-0.00083099544 0.0077402396 0.0018239538 7294032
-0.001908235 0.008690292 0.0011763079 8080695
-0.0031725343 0.0085780323 0.0022190558 8276767
-0.0042533241 0.009529369 0.0015719635 8538646
-0.0051612332 0.011548025 -0.00076303631 7949326
-0.0063390885 0.01196945 -0.00056429673 7361031
0.0078179119 0.0057359608 0.001161132 4992526
0.006647143 0.0061548632 0.0013586534 4795396
0.0054763737 0.0065737735 0.0015561772 4598279
0.0043055979 0.0069926493 0.0017537517 5122315
0.0031348283 0.0074115591 0.0019512754 5647120
0.0020635901 0.0083611282 0.0013037939 5910037
0.00079328957 0.0082493518 0.0023463778 6239267
-0.00037747988 0.0086682616 0.0025439016 7162161
-0.0014540358 0.0096197147 0.0018973295 8079394
-0.0026265732 0.010039257 0.0020951601 8345619
-0.003708455 0.010992601 0.0014495011 8604689
-0.0047049709 0.01248168 -3.8778875e-05 8145935
-0.0058828262 0.012903105 0.00015996071 7753480
-0.007060681 0.013324533 0.00035870168 7493121
0.0084895575 0.0077217654 0.00019021984 5190164
0.007207959 0.0076124296 0.0012334529 4597511
0.006035415 0.0080319643 0.0014312794 4005637
0.004862871 0.008451499 0.0016291058 4794115
0.003588344 0.0083395801 0.0026712241 5582085
0.0025177894 0.0092905508 0.0020248154 5844232
0.0012468058 0.0091773923 0.0030662687 6172173
0.00017270754 0.010129629 0.0024204715 6963218
-0.00090494152 0.011083103 0.0017753392 7684876
-0.0021723739 0.01096868 0.0028161816 8016647
-0.0032535654 0.011923432 0.0021716002 8343308
-0.0042487155 0.013415301 0.00068552885 8015377
-0.0054265638 0.013836735 0.00088427216 7752969
-0.0066044191 0.014258161 0.0010830127 7492353
0.0077701425 0.0090727722 0.0011104546 4399626
0.00659583 0.0094929133 0.0013086405 3482374
0.0054215179 0.0099130822 0.0015067724 4465922
0.0041445326 0.0098004397 0.002548011 5514755
0.0030728856 0.010753425 0.0019030394 5842693
0.001799451 0.010639516 0.0029436676 6172941
0.00072426087 0.01159376 0.0022993032 6764565
-0.00045005133 0.012013928 0.0024974355 7357970
-0.0016243635 0.012434097 0.002695567 7687696
-0.0026145971 0.013927523 0.0012110434 8080923
-0.0037924524 0.014348949 0.001409783 7884582
-0.0048818081 0.015308241 0.0007678587 7753495
-0.0060614394 0.01573034 0.00096685672 7491593
0.0072645093 0.011489674 0.00034546852 4269063
0.0058763991 0.01084392 0.0022288747 4793345
0.004702087 0.011264087 0.0024270071 5383426
0.0035277752 0.011684256 0.0026251385 5713155
0.0023534629 0.012104424 0.0028232709 6042894
0.0011791493 0.012524607 0.0030214097 6502169
0.00019737653 0.014018286 0.0015378678 6965529
-0.0011694746 0.013364933 0.0034176698 7293209
-0.0021583347 0.014861153 0.0019353544 7689258
-0.0032452324 0.015821252 0.0012941509 7686972
-0.0043356731 0.016782619 0.00065355888 7620646
-0.0055170716 0.017205335 0.00085285679 7490321
-0.0066984706 0.017628029 0.0010522078 7361033
0.0078283474 0.012957664 0.00022821641 5055496
0.0065429085 0.012844761 0.0012684688 5120001
0.0053650527 0.013266195 0.001467213 5253378
0.0039826636 0.012615094 0.0033472413 5583619
0.0030093496 0.014109055 0.0018646959 5911312
0.0016340395 0.01345543 0.003743506 6240030
0.0006536388 0.014951914 0.0022621797 6569249
-0.00071458629 0.014295779 0.0041397763 6964261
-0.0017020719 0.015794799 0.0026596086 7357744
-0.0028799276 0.016216233 0.0028583519 7423803
-0.0038780372 0.017719064 0.0013800249 7554857
-0.0050594364 0.01814178 0.0015793224 7489303
-0.0062408345 0.018564474 0.0017786738 7426060
0.005821316 0.014199816 0.0021915208 5123586
0.0046434607 0.014621244 0.0023902603 5320707
0.0034656052 0.015042702 0.0025889501 5583379
0.0022877494 0.015464135 0.0027876934 5910051
0.0011098944 0.015885562 0.002986433 6236970
-6.7953893e-05 0.016306996 0.0031851763 6631729
-0.0012458095 0.016728427 0.0033839205 7026486
-0.0024236646 0.017149854 0.0035826601 7291195
-0.003420409 0.018655509 0.002106491 7488556
-0.0046018078 0.019078225 0.0023057889 7555614
-0.0057832068 0.019500922 0.0025051436 7556623
0.0062775784 0.015133471 0.0029157782 4992257
0.0050997226 0.015554905 0.0031145215 5123842
0.0039218678 0.015976325 0.0033132583 5254671
0.0027440118 0.016397763 0.0035120044 5582108
0.001566156 0.016819198 0.0037107477 5909533
0.00038830045 0.017240632 0.003909491 6303774
-0.00078955462 0.017662056 0.0041082306 6764581
-0.0019674103 0.018083517 0.0043069208 7093035
-0.0029627739 0.019591961 0.0028329603 7489072
-0.0039652288 0.021102954 0.0013600993 7621941
-0.0051501705 0.021526903 0.0015600589 7753249
0.0055559766 0.016488541 0.0038388353 4664065
0.0043781297 0.016909987 0.004037519 4860683
0.0032002742 0.017331418 0.0042362623 5254166
0.002022418 0.01775286 0.0044350084 5582097
0.00084456342 0.018174278 0.0046337452 6042124
-0.00033329235 0.018595714 0.0048324885 6502932
-0.0014174504 0.019561421 0.0041956482 6897436
-0.0025051443 0.020528395 0.0035594199 7358516
-0.0036865433 0.020951118 0.0037587211 7685709
-0.0046911617 0.022466168 0.0022886796 7947571
-0.0058761039 0.022890132 0.0024886448 7556121
0.0061172503 0.017964056 0.0037268074 4203265
0.0049376269 0.018386114 0.0039258534 4532486
0.0037580046 0.018808167 0.0041248947 4926219
0.0024786815 0.018686473 0.0051593138 5320201
0.001300825 0.019107915 0.0053580599 5780742
0.00021912612 0.02007439 0.004721988 6240013
-0.00086611073 0.021042153 0.0040865382 6767636
-0.001862284 0.022557475 0.0026174895 7291687
-0.0030472178 0.022981454 0.0028173942 7750459
-0.0041430909 0.023952991 0.002183768 8208935
-0.0053298003 0.024377599 0.00238398 7749907
0.0066799014 0.019442387 0.0036170008 4334593
0.0054985103 0.019865107 0.0038162991 4073217
0.0043171123 0.020287801 0.0040156497 4664321
0.0030353258 0.02016528 0.0050493367 5254913
0.0018556952 0.020587362 0.0052483277 5714689
0.00077291607 0.021555908 0.0046136528 6108166
-0.00040847511 0.021978598 0.0048130043 6633228
-0.0015898736 0.022401318 0.0050123008 7158555
-0.0025882169 0.023920722 0.0035460182 7551018
-0.0037731517 0.024344679 0.0037459815 7943708
-0.0048701088 0.02531825 0.0031137345 7618062
-0.0060568182 0.025742859 0.0033139456 7292169
0.0073503037 0.021468218 0.0026752185 4527361
0.0061653689 0.021892175 0.0028751809 3614977
0.0049804277 0.02231615 0.0030750856 4402433
0.0035933489 0.021646943 0.00494147 5255169
0.0024119501 0.022069659 0.0051407674 5648641
0.0014256099 0.023588065 0.0036748629 6041350
0.00024066801 0.024012022 0.0038748253 6499852
-0.00094427395 0.024436004 0.0040747346 7026719
-0.0020369985 0.02540971 0.0034430129 7353650
-0.0032237072 0.025834311 0.0036432222 7682080
0.0078093116 0.022407483 0.0034038424 4928001
0.006729668 0.023378149 0.0027711177 4270849
0.005439437 0.023255412 0.0038037077 4663809
0.0042544943 0.023679376 0.0040036729 5124609
0.0030695531 0.024103355 0.0042035794 5517569
0.0018846106 0.024527319 0.0044035437 5910534
0.0007961209 0.025501173 0.0037722308 6370060
-0.0003905971 0.02592577 0.0039725006 6829603
0.0072953487 0.024866942 0.0026692096 4991233
0.0060026501 0.024743408 0.0037010843 4990721
0.0048159412 0.025168017 0.0039012954 4992769
0.0036292314 0.025592633 0.0041015102 5386497
0.0024425217 0.026017219 0.0043017743 5844995
0.0080757504 0.027457613 0.00090839993 5317121
0.0065672453 0.026234243 0.0036005583 5121537
0.0053787674 0.026659459 0.0038011288 4926465
