# .PCD v0.7 - Point Cloud Data file format
VERSION 0.7
FIELDS x y z rgba
SIZE 4 4 4 4
TYPE F F F U
COUNT 1 1 1 1
WIDTH 539
HEIGHT 1
VIEWPOINT 0 0 0 1 0 0 0
POINTS 539
DATA ascii
0.019363346 0.0022365497 0.00081091421 5843203
0.020599939 0.002950062 0.00076047564 5580034
0.0085644834 0.00092048477 0.00066958205 6905865
0.0066136569 0.0014331294 0.0005552154 6770439
0.0077981576 0.0024946295 0.0024767495 6905348
0.0090380572 0.003210037 0.0024262038 6774785
0.0034262426 0.0012323027 0.00049123634 7028482
0.0047234269 0.0015983749 -0.0015311699 6506001
0.0058994293 0.0026593013 0.00039035245 6702880
0.0071360213 0.0033728285 0.00033985591 6901526
0.0083726207 0.0040863426 0.00028941757 6772493
0.0096092131 0.0047998559 0.00023897924 6709255
0.0015445058 0.001398053 -0.0015949698 7422466
0.0027778056 0.0021096729 -0.0016453005 7159556
0.0039485996 0.0031719878 0.00027593481 6898719
0.0051851915 0.0038855011 0.00022549625 6899002
0.0064776968 0.0042445203 -0.0017962351 6965033
0.0077109914 0.0049561104 -0.0018465728 6901529
0.0088949837 0.0060260561 7.4123032e-05 6774285
-0.0028677171 0.00048612524 -0.0016083743 7026695
-0.0016344173 0.001197746 -0.0016587049 7159060
-0.00040111784 0.0019093659 -0.0017090358 7159586
0.00083217438 0.0026209857 -0.0017593667 7225110
0.0020654765 0.0033325776 -0.0018097044 7225098
0.003298776 0.0040441975 -0.0018600351 7290906
0.004532068 0.0047558034 -0.0019103079 7160106
0.0057075638 0.0058251871 1.0194955e-05 7095326
0.0069441558 0.0065387003 -4.024338e-05 6965010
0.0081807477 0.007252227 -9.0739923e-05 6903306
-0.0048133344 0.00099742413 -0.0017225049 6831624
-0.0035800389 0.001709044 -0.0017728357 7026701
-0.0023467392 0.0024206508 -0.0018231085 7158824
-0.0011134469 0.0031322697 -0.0018734394 7224899
0.00011985272 0.0038438905 -0.0019237702 7290922
0.0013531548 0.0045554824 -0.0019741077 7290641
0.0025864469 0.0052671023 -0.0020244387 7225109
0.0038197467 0.0059787086 -0.0020747115 7290906
0.004993326 0.0070513869 -0.00015466148 7291155
0.0062299185 0.0077649001 -0.00020509982 7096076
0.0074665179 0.0084784143 -0.00025553815 6901511
-0.0079922583 0.00079711713 -0.00178624 6699021
-0.0067589618 0.001508737 -0.0018365709 6764548
-0.005525664 0.002220328 -0.0018869085 6830086
-0.004377068 0.0032829354 3.3661025e-05 7026697
-0.0030590682 0.0036435546 -0.0019875122 7224086
-0.0018257685 0.0043551754 -0.002037843 7290148
-0.00059247634 0.0050667943 -0.0020881738 7420951
0.00064082327 0.0057784156 -0.0021385048 7289867
0.0018741229 0.0064900354 -0.0021888353 7224848
0.0031074174 0.0072016264 -0.002239173 7357461
0.0043407171 0.0079132337 -0.0022894458 7554321
0.0055156904 0.008991072 -0.00036996277 7227149
0.0067522903 0.0097045861 -0.00042040111 6966023
-0.0099378787 0.0013084011 -0.0019003127 6434830
-0.0087045822 0.002020021 -0.0019506436 6371337
-0.0074712872 0.0027316408 -0.0020009745 6502660
-0.0062379893 0.0034432327 -0.002051312 6633988
-0.0050046896 0.0041548526 -0.0021016428 6830597
-0.0037713898 0.0048664734 -0.0021519735 7027205
-0.0025380976 0.0055780793 -0.0022022466 7159046
-0.0013047981 0.0062896996 -0.0022525773 7290373
-7.1505783e-05 0.0070013194 -0.0023029083 7290373
0.0011617939 0.0077129398 -0.0023532389 7290379
0.002395096 0.0084245317 -0.0024035766 7488273
0.003628388 0.0091361376 -0.0024538494 7752207
0.0048014629 0.010217244 -0.00053482549 7357198
0.0060380553 0.010930757 -0.00058526406 7027207
-0.010650208 0.0025313189 -0.0020647743 6238474
-0.0094169136 0.0032429257 -0.0021150473 6108422
-0.0082787201 0.0043082964 -0.0001951165 6307586
-0.0070421253 0.0050217807 -0.00024556182 6504194
-0.0058055297 0.005735294 -0.00029600016 6701059
-0.0044837189 0.0060893772 -0.0023163774 6897667
-0.0032504266 0.0068009836 -0.0023666502 7028996
-0.0020171271 0.0075126044 -0.0024169809 7159557
-0.00085915008 0.0085893627 -0.00049781194 7224582
0.00037744205 0.0093028899 -0.00054830848 7355154
0.0016140415 0.010016403 -0.00059874682 7619359
0.0028506336 0.010729917 -0.00064918515 7946515
0.0040872255 0.011443445 -0.0006996817 7552776
0.0053238273 0.012156929 -0.00075012702 7158021
0.0064215879 0.013811855 0.0041209352 7026178
0.0076664262 0.014530121 0.0040701409 6900742
-0.010229547 0.0048209401 -0.00030948315 6107652
-0.0089929514 0.0055344542 -0.00035992125 6109441
-0.0077563548 0.0062479815 -0.00041041779 6111233
-0.0065197633 0.0069614947 -0.00046085636 6373121
-0.0052831676 0.0076750084 -0.0005112947 6635009
-0.0040465719 0.0083885361 -0.00056179124 6830850
-0.0028099772 0.0091020204 -0.00061223656 7026948
-0.0015733778 0.0098155346 -0.00066267489 7092487
-0.00033678557 0.010529047 -0.00071311346 7223578
0.0008998065 0.011242575 -0.00076361001 7355182
0.0021363988 0.011956088 -0.00081404857 7552536
0.003372998 0.012669603 -0.00086448668 7224066
0.0045184963 0.013949983 0.0020373832 6895874
0.005760035 0.014666345 0.0019867541 6763267
0.0070015802 0.015382719 0.0019360674 6635787
0.0082431156 0.016099108 0.0018854453 6835219
-0.010943774 0.0060471119 -0.00047434587 6110466
-0.009806091 0.0071208952 0.0014444939 5910273
-0.0084705874 0.0074741389 -0.00057522277 5782529
-0.0072339908 0.0081876665 -0.00062571932 6110721
-0.0059973989 0.0089011807 -0.00067615788 6437891
-0.0047608032 0.0096146939 -0.00072659622 6633990
-0.003524207 0.010328221 -0.00077709253 6895368
-0.0022876151 0.011041734 -0.0008275311 7025931
-0.0010510231 0.011755248 -0.0008779692 7156247
0.0001855765 0.012468762 -0.000928408 7155492
0.0014221687 0.013182289 -0.00097890443 7156759
0.0025928356 0.014275075 0.00093856896 6895881
0.0038014073 0.015181072 0.0018718964 6698247
0.0050429455 0.01589743 0.001821267 6566150
0.0062844912 0.016613806 0.0017705802 6437901
0.0075260289 0.017330166 0.0017199512 6636820
0.0087675676 0.018046539 0.0016692644 6838034
0.010009114 0.018762901 0.0016186354 6707728
-0.010522231 0.008350349 0.0012792363 6242305
-0.0092823394 0.0090657687 0.0012286319 5847297
-0.0080424473 0.0097811902 0.0011780281 5978113
-0.0068025519 0.010496611 0.0011274242 6108934
-0.0055626594 0.011212018 0.0010768776 6437387
-0.0043227677 0.011927438 0.0010262742 6763533
-0.0030828756 0.012642859 0.00097566983 6828815
-0.0018429838 0.01335828 0.00092506548 6892309
-0.00060309179 0.0140737 0.00087446161 6826523
0.00063680013 0.014789107 0.0008239157 6760726
0.0018766923 0.015504528 0.00077331136 6565137
0.0030843113 0.016412158 0.0017064088 6369549
0.0043258569 0.017128535 0.001655722 6304009
0.0055674021 0.017844893 0.001605093 6305551
0.0068089408 0.01856127 0.0015544062 6505237
0.008050479 0.019277629 0.0015037772 6705429
0.0092920251 0.019994002 0.0014530905 6641429
-0.0099984724 0.010295209 0.0010633096 5979655
-0.0087585803 0.011010614 0.0010127639 5845773
-0.0075186887 0.011726035 0.0009621596 5781257
-0.0062787971 0.012441456 0.00091155525 6175494
-0.0050389054 0.013156877 0.00086095138 6632967
-0.0037990166 0.013872284 0.00081040524 6631944
-0.0025591175 0.014587705 0.00075980159 6694411
-0.0013192254 0.015303127 0.00070919725 6563599
-7.9335761e-05 0.016018575 0.00065859989 6432783
0.0011605562 0.016733997 0.00060799601 6236431
0.0024004481 0.017449401 0.00055744988 6105613
0.0036403402 0.018164825 0.00050684577 6105867
0.0048802318 0.018880244 0.00045624166 6172939
0.0061201244 0.019595664 0.00040563755 6373900
0.0073600165 0.020311072 0.00035509188 6573076
0.0085749347 0.021225091 0.0012876033 6640924
0.0098164733 0.021941464 0.0012369161 6708255
-0.0094747171 0.012240083 0.00084744813 5843226
-0.0081400909 0.01257971 -0.0011706818 5580813
-0.0069949324 0.01367091 0.00074629812 5779457
-0.0057550408 0.014386331 0.00069569377 6043905
-0.0045151454 0.015101752 0.00064508989 6106113
-0.0032752533 0.015817173 0.00059448602 6234370
-0.0020353612 0.016532579 0.00054393988 6168580
-0.00079546939 0.017248001 0.00049333554 6168585
0.00044442271 0.017963421 0.00044273189 6037774
0.0016843146 0.01867884 0.00039212732 5906957
0.0029242067 0.019394264 0.00034152344 5974285
0.0041640988 0.020109672 0.00029097754 6105864
0.0054039904 0.020825092 0.00024037296 6307075
0.0066438899 0.021540511 0.00018976908 6506259
0.007883775 0.022255931 0.0001391652 6639139
0.0091236662 0.02297134 8.8618835e-05 6708777
-0.0088543221 0.013805882 -0.001335545 5448455
-0.0077110664 0.014900349 0.00058097579 5449985
-0.0064711748 0.01561577 0.00053037168 5449729
-0.0052312822 0.016331177 0.00047982554 5646081
-0.0039913869 0.017046597 0.00042922143 5840641
-0.0027514948 0.017762017 0.00037861755 5840386
-0.0015116027 0.01847744 0.00032801367 5906437
-0.00027171092 0.019192845 0.00027746754 5775368
0.00096817873 0.019908294 0.00022687018 5711111
0.0022080708 0.020623717 0.00017626584 5908231
0.0034479625 0.021339137 0.00012566196 6106629
0.004687855 0.022054557 7.505808e-05 6305796
0.0059277466 0.022769965 2.4511479e-05 6504724
0.0071676387 0.023485389 -2.6092399e-05 6637604
0.0084075294 0.024200805 -7.6696509e-05 6772259
0.0096474309 0.024916228 -0.00012730039 6445602
-0.0084272064 0.016129803 0.00041571818 5446914
-0.0071873101 0.016845223 0.00036511431 5250305
-0.0059474222 0.017560646 0.00031450996 5380609
-0.0047075301 0.018276062 0.00026390585 5511169
-0.0034676306 0.01899147 0.00021335995 5644033
-0.0022277462 0.01970689 0.00016275607 5775617
-0.00098784687 0.020422313 0.00011215219 5709570
0.00025204517 0.021137733 6.1547616e-05 5711873
0.0014919372 0.021853141 1.1001714e-05 5908737
0.0027318292 0.022568561 -3.960263e-05 6107651
0.003971721 0.023283981 -9.020674e-05 6305030
0.0052116131 0.0239994 -0.00014081062 6503446
0.0064515052 0.024714824 -0.00019141473 6635814
0.0076913973 0.025430229 -0.00024196063 6835741
0.0089312885 0.026145652 -0.00029256451 6707221
-0.0091919117 0.017552987 0.0012334776 5444881
-0.0079034511 0.018074691 0.00019979803 5051145
-0.0066635581 0.0187901 0.00014925236 5116417
-0.0054236664 0.019505519 9.8648248e-05 5183234
-0.0041837743 0.020220939 4.8044138e-05 5382403
-0.0029438823 0.020936359 -2.5597401e-06 5644551
-0.0017039902 0.021651767 -5.310541e-05 5709323
-0.00046409084 0.022367187 -0.00010370952 5777414
0.0007757938 0.023082606 -0.00015431433 5975041
0.0020156931 0.02379803 -0.00020491797 6172674
0.0032555778 0.024513438 -0.00025546434 6304516
0.0044954773 0.025228858 -0.00030606822 6502166
0.0057353619 0.025944278 -0.00035667233 6699816
0.006975261 0.026659697 -0.00040727621 6898219
-0.0099090002 0.018784087 0.0010679322 5580833
-0.0086674616 0.019500449 0.0010173034 5245457
-0.0074259159 0.020216808 0.00096667442 4919553
-0.0061843777 0.020933185 0.00091598742 4658691
-0.0048999079 0.021450363 -0.00011722045 5054469
-0.0037012943 0.022365917 0.00081467163 5513485
-0.0024201162 0.022881206 -0.00021842821 5645333
-0.0011802318 0.023596626 -0.00026903208 5777419
5.9667742e-05 0.024312034 -0.00031957822 5974785
0.0012995523 0.025027454 -0.00037018256 6106626
0.0025394517 0.025742874 -0.00042078597 6238467
0.0037793438 0.026458297 -0.00047139055 6435606
-0.0093845539 0.020731535 0.00085181603 5449225
-0.0081430115 0.021447908 0.00080112927 4788481
-0.0069014705 0.02216427 0.00075050024 4199938
-0.0056599285 0.022880644 0.00069981348 4792323
-0.0044183903 0.023597006 0.00064918445 5383175
-0.0031362595 0.02411066 -0.00038368581 5581067
-0.0018963604 0.024826083 -0.00043428992 5842950
-0.00065647566 0.025541503 -0.0004848938 5974529
-0.010101637 0.021962609 0.00068626413 6110209
-0.0089563653 0.023080088 0.0026002764 5251329
-0.0076185563 0.023395371 0.00058495486 4396801
-0.0063770176 0.024111733 0.00053432584 4792321
-0.0051354719 0.024828106 0.00048363907 5187329
-0.0038523953 0.025340129 -0.00054900162 5384193
-0.0096753594 0.024314445 0.0024343301 5648641
-0.0083356425 0.02462643 0.00041946094 4596737
-0.0070941006 0.025342789 0.00036883214 4792578
-0.0069785141 0.00055234693 -0.002326245 7225349
-0.0079624858 0.0015747873 -0.0041488092 7028484
-0.0091190916 0.0020212401 -0.0040486827 6834946
-0.0043162876 0.00042066071 -0.0010725684 6961671
-0.0054675699 0.00086504873 -0.00097286433 7092745
-0.0065318565 0.001599025 -0.0018337343 7224594
-0.0076849177 0.0020441096 -0.0017339282 7094556
-0.0086710639 0.0030711377 -0.0035546841 7031056
-0.0017572872 0 0.0011406629 6107396
-0.0029050298 0.00044301897 0.0012400462 6501128
-0.0038703238 0.0014657425 -0.00058086007 6895113
-0.0050216019 0.001910123 -0.00048115756 7091467
-0.0060852026 0.0026457235 -0.0013412801 7353632
-0.0071523455 0.0033826986 -0.0022011418 7356469
-0.0083071757 0.0038284473 -0.0021011191 7424030
0.00098279933 0.00015582424 0.0014321157 5121286
-0.00016494328 0.00059884414 0.0015314994 5581825
-0.0013126931 0.0010418631 0.0016308832 6042117
-0.0022730636 0.0020664306 -0.00018879585 6435337
-0.0034243488 0.0025108112 -8.9093577e-05 6829577
-0.0044854945 0.00324733 -0.00094863377 7156746
-0.0056385477 0.0036923941 -0.00084877107 7485718
-0.0067050057 0.0044309935 -0.0017078854 7618339
-0.0077750064 0.005170946 -0.0025666826 7815955
-0.008931607 0.0056173783 -0.0024664998 7227140
0.0039293393 0.00088955648 -0.00019542826 4266762
0.0027780542 0.001333937 -9.5725758e-05 4660756
0.0016267681 0.0017783381 3.9199367e-06 5115402
0.00027965091 0.0016407073 0.0020217197 5516801
-0.00067580317 0.0026671197 0.00020326837 5976837
-0.0018270891 0.0031115068 0.0003029725 6369546
-0.0029783826 0.0035559079 0.0004026182 6764041
-0.0040388373 0.0042940155 -0.00045612128 7026185
-0.005191891 0.0047390871 -0.00035625696 7356685
-0.0062576653 0.0054792808 -0.0012146307 7487505
-0.0074124937 0.005925043 -0.001114666 7618569
-0.0084835794 0.0066672829 -0.0019724993 7161857
0.0068927929 0.0016242396 -0.001821219 3479816
0.0057379636 0.0020699883 -0.0017211963 3807745
0.0044792248 0.0022251811 -0.00066241762 4201223
0.0034283064 0.0029615127 -0.0015212671 4660494
0.0021731106 0.0031153234 -0.00046275067 5121799
0.0010200498 0.0035604015 -0.00036294619 5517569
-0.00013301161 0.0040054861 -0.00026314007 5976326
-0.001286065 0.0044505512 -0.00016327761 6304012
-0.0023458384 0.0051903035 -0.0010213261 6698254
-0.0035006669 0.0056360653 -0.00092136138 6961424
-0.0047452366 0.0057857786 0.00013619568 7290126
-0.0058103246 0.0065275761 -0.00072137406 7359501
-0.0069651534 0.0069733378 -0.00062140962 7424520
-0.0081199836 0.0074191 -0.00052144495 7162115
0.0084949695 0.0022267727 -0.0014279271 5259523
0.0073401327 0.0026725344 -0.0013279626 4203010
0.006291687 0.0034097936 -0.0021861664 4265729
0.0050304751 0.0035640448 -0.0011279753 4332292
0.0038756542 0.0040098075 -0.0010280105 4661256
0.0027208179 0.0044555692 -0.00092804595 5056517
0.0014667071 0.004607087 0.00012956606 5449730
0.00031364628 0.0050521651 0.00022937078 5777416
-0.00083940779 0.0054972507 0.0003291769 6105614
-0.001898498 0.0062385979 -0.00052806968 6433811
-0.0031455224 0.0063873995 0.00052884547 6763544
-0.0042985831 0.0068324637 0.00062870793 7026960
-0.0053629847 0.0075758705 -0.00022811769 7292425
-0.0065178131 0.0080216322 -0.00012815301 7555079
-0.0076726419 0.0084673949 -2.818834e-05 7226630
0.0067397095 0.0044596978 -0.0016921657 4723969
0.0054778163 0.0046123331 -0.00063472055 4462082
0.0044265091 0.0053525763 -0.001491858 4727812
0.0031681512 0.0055038566 -0.0004347912 5056003
0.0020133299 0.0059496053 -0.00033476856 5318659
0.00076030364 0.0060988506 0.00072188303 5646088
-0.00039275712 0.0065439278 0.00082168728 5906958
-0.0014511645 0.0072868848 -3.4814933e-05 6236434
-0.0026059859 0.007732647 6.5149739e-05 6500118
-0.0038519255 0.0078791557 0.0011211606 6830108
-0.0049156439 0.0086241718 0.00026507908 7290913
-0.0060704723 0.0090699205 0.00036510173 7749909
-0.0072253044 0.0095156822 0.00046506617 7356938
0.0071877413 0.0055095954 -0.0011981666 4790017
0.0059251557 0.005660648 -0.00014152029 4329985
0.004874533 0.006402473 -0.00099785917 4661249
0.0036154985 0.0065521584 5.8467034e-05 4989698
0.0024606769 0.006997921 0.00015843171 5252868
0.0013058407 0.0074436697 0.00025845435 5580297
0.00015101937 0.0078894328 0.00035841903 5776910
-0.001003817 0.0083351936 0.0004583837 5973777
-0.0021586381 0.0087809423 0.00055840658 6303509
-0.0033134744 0.009226704 0.00065837079 6567719
-0.0043782634 0.0099740224 -0.00019680429 6961466
-0.0055348715 0.010420467 -9.6679432e-05 7355172
-0.0065184915 0.011472696 -0.0019060863 7226126
-0.0076786312 0.011920513 -0.001805641 7032071
0.0076357638 0.0065595061 -0.00070416438 4856321
0.0064791669 0.0070059523 -0.00060403952 4201218
0.005322563 0.007452385 -0.00050385669 4594691
0.004165967 0.0078988243 -0.00040373346 4990733
0.0030093624 0.0083452705 -0.00030360883 5252888
0.0017531817 0.0084919576 0.0007517091 5514770
0.0006961613 0.0092381621 -0.00010335911 5644300
-0.00046043494 0.0096845888 -3.1781383e-06 5777422
-0.0016170393 0.010131033 9.6946955e-05 6041361
-0.002773636 0.010577479 0.00019707158 6370585
-0.0039302399 0.011023926 0.00029719644 6698785
-0.0050868443 0.011470372 0.00039732107 7027989
-0.0060690907 0.01252582 -0.0014105972 7030024
-0.0072292346 0.012973635 -0.0013101521 7097093
-0.0083893742 0.013421442 -0.0012097084 6901762
0.0083020162 0.008205222 -0.002120377 4662017
0.0071418774 0.0086530298 -0.0020199334 3742211
0.0059817298 0.0091008442 -0.0019194885 4267781
0.0048215906 0.0095486445 -0.0018190466 4795160
0.003457393 0.0093951747 0.00019039214 5056812
0.0023007893 0.0098416135 0.0002905149 5318427
0.0011441926 0.01028806 0.00039063976 5449738
0.00018102326 0.011339887 -0.0014172692 5581324
-0.0011690084 0.011180938 0.00059094746 5844494
-0.0023256128 0.011627384 0.00069107208 6173451
-0.0034822095 0.012073831 0.00079119694 6567689
-0.0044595506 0.013131123 -0.0010154938 6962950
-0.0056196908 0.01357893 -0.00091505027 7030019
-0.0067798384 0.014026744 -0.00081460504 7096835
-0.0079399776 0.014474551 -0.00071416143 7031811
-0.0091001224 0.014922359 -0.00061371806 6967042
0.0087514212 0.0092583457 -0.001624888 4533265
0.0075912816 0.0097061526 -0.0015244444 3352334
0.0064311335 0.010153967 -0.0014239993 3940876
0.0052709947 0.010601767 -0.0013235577 4599059
0.0041108471 0.011049582 -0.0012231127 4861211
0.0029507072 0.011497389 -0.0011226692 5122065
0.0017905675 0.011945196 -0.0010222255 5253640
0.00063041993 0.01239301 -0.00092178048 5383947
-0.00072098523 0.012230842 0.001084948 5710862
-0.0018775822 0.012677289 0.0011850731 6042126
-0.0030341791 0.013123735 0.0012851977 6502158
-0.0040101544 0.014184247 -0.00052000466 6962184
-0.0051702936 0.014632053 -0.00041956129 7030274
-0.0063304338 0.015079867 -0.00031911628 7161351
-0.0074905776 0.015527675 -0.00021867268 7161613
-0.0086507201 0.015975483 -0.00011822907 7162897
-0.0098108649 0.016423289 -1.77857e-05 6837013
0.0080406778 0.010759263 -0.0010288975 3614746
0.0068805306 0.011207077 -0.00092845247 4072211
0.0057203909 0.011654885 -0.0008280091 4534030
0.0045602508 0.012102691 -0.00072756549 4730122
0.0034001032 0.012550506 -0.00062712049 4991240
0.0022399637 0.012998314 -0.00052667689 5187591
0.0010798239 0.013446121 -0.00042623328 5448714
-8.0323778e-05 0.013893934 -0.00032578828 5777422
-0.0014295583 0.013727186 0.0016790717 6107408
-0.0024006029 0.014789549 -0.0001249013 6501907
-0.0035607507 0.015237363 -2.4456065e-05 6896138
-0.0047208904 0.015685171 7.598754e-05 7094786
-0.0058810376 0.016132977 0.00017643091 7291916
-0.0070411772 0.016580785 0.00027687429 7292183
-0.0082013216 0.0170286 0.00037731952 7359008
-0.0093614645 0.017476406 0.00047776289 7033385
0.0085994769 0.012115826 -0.0014861483 3875855
0.0074375616 0.012564317 -0.0013855447 4203786
0.0062756469 0.013012809 -0.001284941 4532488
0.0051137316 0.013461299 -0.0011843374 4664582
0.0038494999 0.013603628 -0.0001316315 4860166
0.0026893676 0.014051437 -3.1187665e-05 5187335
0.0015292206 0.014499243 6.9255708e-05 5515279
0.00036907289 0.014947058 0.00016970071 5843991
-0.00079106679 0.015394866 0.00027014432 6172455
-0.0019512065 0.015842672 0.00037058815 6501943
-0.0031113541 0.016290486 0.00047103292 6896669
-0.0042714938 0.016738296 0.0005714763 7159556
-0.0054316367 0.017186102 0.0006719199 7488520
-0.0065917806 0.017633907 0.00077236304 7488525
-0.0077519207 0.018081721 0.00087280851 7554833
-0.0089120679 0.018529531 0.00097325188 7229973
0.0090495627 0.013170547 -0.00098985666 4464643
0.0078876475 0.013619044 -0.00088925171 4333569
0.0067257327 0.014067536 -0.00078864815 4268033
0.0055638179 0.014516026 -0.00068804459 4531202
0.0044019027 0.01496453 -0.00058749877 4794628
0.0031387638 0.015104553 0.00046436093 5122311
0.0019786167 0.015552361 0.00056480407 5384468
0.00081847701 0.016000167 0.00066524791 5712929
-0.00034166267 0.016447976 0.00076569128 6041150
-0.0015018103 0.01689579 0.00086613651 6435931
-0.0026619574 0.017343596 0.00096657965 6831665
-0.0038220896 0.017791402 0.0010670237 7225351
-0.0049822368 0.018239211 0.0011674673 7619845
-0.0061423769 0.018687025 0.0012679119 7685123
-0.0073025241 0.019134831 0.0013683555 7816194
-0.0084626637 0.01958264 0.0014687991 7294721
-0.0096228085 0.020030454 0.0015692441 6772993
0.0094996504 0.014225265 -0.00049356604 5125890
0.0083377287 0.014673769 -0.00039302045 4527361
0.0071758204 0.015122261 -0.00029241666 4005121
0.0060139056 0.015570752 -0.0001918131 4399617
0.0048519904 0.016019244 -9.1209542e-05 4793859
0.0035881605 0.016157676 0.00095984968 5056773
0.0024280208 0.016605485 0.0010602935 5319181
0.0012678737 0.017053291 0.0011607367 5647381
0.000107734 0.017501097 0.0012611803 5976108
-0.0010524136 0.017948911 0.0013616253 6370115
-0.0022125533 0.01839672 0.0014620689 6766116
-0.003372693 0.01884453 0.0015625125 7225606
-0.0045328396 0.019292336 0.0016629556 7751428
-0.0056929807 0.019740149 0.0017634011 7948034
-0.0068531237 0.020187955 0.0018638447 8145410
-0.0080132671 0.020635765 0.0019642883 7359746
-0.0091734082 0.021083578 0.0020647328 6640897
0.0099497307 0.015280005 2.6687048e-06 5262849
0.0088975132 0.016037416 -0.00084695988 4659713
0.0077338303 0.016486604 -0.00074625411 4135425
0.0065701394 0.016935777 -0.00064549036 4399361
0.0053020767 0.01707397 0.00040508341 4662274
0.0041401619 0.017522462 0.0005056872 4990979
0.0029782541 0.017970953 0.00060629076 5319686
0.001816339 0.018419456 0.00070683635 5647370
0.00055713067 0.018554207 0.0017567272 5976859
-0.0006030096 0.019002024 0.0018571722 6371116
-0.0016694064 0.01976493 0.0010086475 6766104
-0.0028313214 0.020213421 0.0011092504 7226117
-0.004083436 0.020345442 0.002158503 7686403
-0.0052435761 0.020793259 0.0022589485 8013825
-0.0064037237 0.02124108 0.0023593339 8276994
-0.0075638671 0.021688886 0.0024597771 7686659
-0.0087240115 0.022136699 0.0025602221 7098882
0.010231296 0.019578092 -0.0079462323 4857866
0.0090534389 0.020032737 -0.0078442479 4266501
0.0070209098 0.017992109 -0.00014845538 4399361
0.0057521639 0.018128701 0.00090131653 4596226
0.004693544 0.018890452 5.3071184e-05 4925187
0.0035298611 0.01933964 0.00015377649 5319428
0.0022664261 0.019474175 0.0012031277 5647621
0.0011045109 0.019922666 0.001303731 5976853
-5.7404162e-05 0.020371161 0.0014043348 6372133
-0.0012193192 0.020819649 0.0015049386 6764821
-0.0023812344 0.021268141 0.0016055424 7226886
-0.0035431492 0.021716647 0.001706088 7685895
-0.0047050645 0.022165138 0.0018066913 8079625
-0.0058669797 0.02261363 0.0019072946 8473620
-0.0070288912 0.023062121 0.0020078989 8013856
0.010687551 0.020647287 -0.0074431831 5123347
0.0087446664 0.018912103 -0.0007008242 4594186
0.0074716792 0.019048434 0.00034858007 4398081
0.0063079968 0.019497611 0.00044934382 4201986
0.005248291 0.020261686 -0.000398112 4729091
0.003980631 0.020395968 0.00065081217 5319170
0.0028169402 0.020845145 0.00075157546 5647873
0.0016532572 0.021294318 0.00085233944 6042383
0.00048957416 0.021743506 0.00095304567 6370078
-0.00067411643 0.022192683 0.0010538097 6698003
-0.0018377989 0.022641852 0.0011545713 7095560
-0.0030014818 0.023091026 0.0012553353 7489036
-0.0041651726 0.023540203 0.0013560993 7817745
-0.0052408106 0.024310429 0.00051002158 8211495
-0.0064062686 0.024760295 0.00061088568 8080446
0.010585064 0.020147704 -0.0022000233 5388813
0.0090861414 0.019655589 0.00074485177 4923655
0.0078142453 0.019789647 0.0017932951 4332033
0.0067587667 0.020553954 0.00094632106 3809281
0.0055950833 0.021003131 0.001047085 4598786
0.0044314009 0.021452297 0.0011478472 5384706
0.0032677175 0.021901473 0.0012486111 5713667
0.0021040346 0.022350647 0.0013493751 6106900
0.00094034406 0.022799835 0.0014500809 6369061
-0.00022334652 0.023249011 0.0015508444 6633239
-0.001387029 0.023698181 0.0016516065 6964489
-0.002458442 0.024468664 0.00080595654 7292937
-0.0036239 0.024918512 0.00090687908 7621386
0.011037895 0.021208856 -0.0017006961 5588999
0.0095369089 0.020711925 0.0012418884 5253380
0.008373226 0.021161102 0.0013426528 4661505
0.0072095427 0.02161029 0.0014433581 4071937
0.006151211 0.022377573 0.00059744902 4597249
0.004985753 0.022827424 0.00069837132 5122819
0.0037184875 0.022957809 0.0017456482 5450501
0.0025548041 0.023406997 0.001846354 5778457
0.001391121 0.023856174 0.001947118 6041133
0.00032392761 0.024626873 0.0011019479 6306332
-0.00084152352 0.025076736 0.0012028716 6702091
-0.0020069815 0.025526587 0.0013037943 7163399
0.0099876858 0.021768264 0.0017389259 5587460
0.0088239964 0.022217449 0.0018396317 4989187
0.0077681295 0.02298566 0.00099430606 4399365
0.006602671 0.023435518 0.0010952302 4661767
0.005437213 0.023885369 0.0011961521 4923910
0.0042717545 0.024335243 0.0012970185 5186054
0.0031062965 0.024785094 0.0013979403 5450515
0.0019408459 0.025234949 0.0014988626 5713185
0.00077538739 0.025684819 0.0015997291 5977627
0.0092747677 0.023273781 0.0023366665 5189894
0.008219583 0.024043597 0.0014920854 4265225
0.0070541245 0.024493456 0.0015930096 4398605
0.005888673 0.024943311 0.0016939314 4598282
0.0047232145 0.025393181 0.0017947978 4925959
0.0035577568 0.025843032 0.0018957201 5253902
0.0086710416 0.025101542 0.0019898671 4136972
0.0075055831 0.025551401 0.0020907908 4200972
0.0063401335 0.026001256 0.0021917135 4269320
0.0091224946 0.026159465 0.0024877042 4729614
