# .PCD v0.7 - Point Cloud Data file format
VERSION 0.7
FIELDS x y z rgba
SIZE 4 4 4 4
TYPE F F F U
COUNT 1 1 1 1
WIDTH 1038
HEIGHT 1
VIEWPOINT 0 0 0 1 0 0 0
POINTS 1038
DATA ascii
-0.033962745 0.015661325 -0.026946265 4333829
-0.032808591 0.016327281 -0.026993394 4529925
-0.031654432 0.016993221 -0.027040463 4988421
-0.030280203 0.017552294 -0.02908361 5513738
-0.029129349 0.018216342 -0.029130571 5646351
-0.027978491 0.01888039 -0.029177532 5845262
-0.026827633 0.019544423 -0.029224433 6108942
-0.025676772 0.020208456 -0.029271398 6371089
-0.024729498 0.020988911 -0.027323049 6503444
-0.023575341 0.021654852 -0.027370118 6699544
-0.022519683 0.022380888 -0.026419669 6763803
-0.021363877 0.023047786 -0.02646682 6828570
-0.020398466 0.023838675 -0.024519211 7024665
-0.019239366 0.024507476 -0.024566527 7289111
-0.018080261 0.025176279 -0.024613783 7355158
-0.016921163 0.025845079 -0.024661101 7421979
-0.015762061 0.026513882 -0.02470842 7553056
-0.014602957 0.027182685 -0.024755675 7682848
-0.013529167 0.027919197 -0.023805955 7552033
-0.012368418 0.028588954 -0.023853295 7420703
-0.011207664 0.029258696 -0.023900639 7552541
-0.010127274 0.029998999 -0.022951195 7683611
-0.0092009995 0.030884232 -0.020008516 7618329
-0.0080336556 0.031557791 -0.020056129 7618066
-0.0070171324 0.032378189 -0.018110547 7749131
-0.006067784 0.033276744 -0.015168727 7880469
-0.0049642981 0.034030356 -0.01422021 7946271
-0.0039279922 0.034862153 -0.012275509 8013339
-0.0028162692 0.035620563 -0.011327397 8013591
-0.0017684237 0.036459006 -0.0093830377 8079398
-0.00064846082 0.037222147 -0.0084352279 8079925
0.00041092932 0.038067281 -0.0064914441 8144684
0.0014146972 0.038997214 -0.0035518282 8079907
0.0025495044 0.039768919 -0.0026046457 8014107
0.0037465261 0.040459614 -0.0026535094 7882772
0.0049435492 0.041150279 -0.0027023181 7817236
0.0061405748 0.041840974 -0.0027511828 7424020
0.0073375977 0.042531658 -0.0028000493 7096094
0.0085346233 0.043222338 -0.0028488552 7161641
0.0096302833 0.044088382 -0.00090648141 7290917
0.010830605 0.044780973 -0.00095545221 7225120
0.012030929 0.045473561 -0.001004423 7158564
0.013322717 0.045985077 -0.0030442588 7026727
0.014519738 0.046675753 -0.0030930648 6894360
0.01563189 0.047551312 -0.001151341 6829321
0.016832212 0.048243899 -0.0012003118 6763781
0.018032534 0.048936475 -0.0012492863 6633217
0.019232852 0.049629066 -0.001298259 6501889
0.020433178 0.050321653 -0.0013472298 6174209
0.02170188 0.050819851 -0.0033861417 5846273
0.022898907 0.05151052 -0.0034349505 6042881
0.024095934 0.052201215 -0.0034838151 6239489
0.025292952 0.05289188 -0.0035326239 6239489
0.026489979 0.053582575 -0.0035814876 6238979
0.027687004 0.054273259 -0.0036303545 6107654
0.028884023 0.054963939 -0.0036791605 5976340
0.030103698 0.05555078 -0.0047224415 6304035
0.031278074 0.056345303 -0.0037768334 6631186
0.032475099 0.057035998 -0.0038256976 6761985
0.033583608 0.058260228 0.0010966444 6959364
0.034837037 0.058632683 -0.0019349549 7025926
0.03602295 0.059433885 -0.00098986365 7092492
0.037224922 0.060127426 -0.0010389183 7224081
0.038426895 0.060820952 -0.0010879142 7354390
0.039638326 0.061403025 -0.0021308437 7616026
0.040830832 0.062208023 -0.0011860263 7945753
0.042032801 0.062901564 -0.0012350809 8277784
0.043234766 0.063595101 -0.0012841355 8601635
0.044436745 0.064288631 -0.0013331315 8273966
0.045636278 0.065214619 0.0006048521 7945762
0.046841547 0.065910056 0.00055569038 7617557
0.048046812 0.066605493 0.00050652865 7356196
0.049252085 0.067300931 0.000457366 7161139
0.050457347 0.067996375 0.00040814746 7032349
-0.045670632 0.011030477 -0.021683294 3093505
-0.044249974 0.011611987 -0.02372786 3085314
-0.043345828 0.012371898 -0.021778138 3147521
-0.041931767 0.012949578 -0.023822438 3017985
-0.040772665 0.013618395 -0.023869753 2953985
-0.039613571 0.014287181 -0.023917012 3282433
-0.038454466 0.014955983 -0.023964329 3676417
-0.037056901 0.01552416 -0.026007792 4004353
-0.035901096 0.016191054 -0.026054945 4400641
-0.034629364 0.016805753 -0.02710015 4662785
-0.033475209 0.017471708 -0.027147215 4990722
-0.032321047 0.018137667 -0.027194344 5318403
-0.030944914 0.018693455 -0.029237032 5711629
-0.02979406 0.019357488 -0.029283937 5843480
-0.028643198 0.020021535 -0.029330898 6042646
-0.027492344 0.020685583 -0.029377859 6239765
-0.026341483 0.021349631 -0.02942482 6502429
-0.025396116 0.022133341 -0.027476873 6633766
-0.02424196 0.022799298 -0.027523998 6830626
-0.023187255 0.023526955 -0.026573721 6894878
-0.022031447 0.024193848 -0.026620872 7026463
-0.021067938 0.024988003 -0.024673723 7419937
-0.01990884 0.025656821 -0.024721038 7748118
-0.018749734 0.026325608 -0.024768297 7683340
-0.017590636 0.026994411 -0.024815615 7553553
-0.016431535 0.027663225 -0.024862926 7683863
-0.015272431 0.028332017 -0.024910185 7814162
-0.014199594 0.029070176 -0.023960695 7748365
-0.013038846 0.029739918 -0.024008036 7748370
-0.011961048 0.030480901 -0.02305874 7748376
-0.010961266 0.031295996 -0.021113053 7682841
-0.0098752361 0.032041743 -0.02016411 7552539
-0.0088639148 0.032863505 -0.018218823 7422223
-0.0077696345 0.03361401 -0.017270237 7619331
-0.0067467787 0.03444244 -0.015325466 7881997
-0.0056442502 0.035197686 -0.014377117 7948056
-0.004609847 0.036032751 -0.012432877 8014100
-0.0034293085 0.036713924 -0.012481031 8144913
-0.0024531339 0.037634511 -0.0095410943 8275996
-0.0013341219 0.03839929 -0.0085935108 8145192
-0.00014698738 0.039084263 -0.0086419396 8078375
0.00085062301 0.040017217 -0.0057028411 8014375
0.0018581282 0.040955864 -0.0027642455 8014364
0.0030551462 0.041646544 -0.0028130515 7883026
0.004252173 0.042337228 -0.0028619189 7685398
0.0053360355 0.043200836 -0.00091956463 7423002
0.0066462215 0.043718588 -0.0029595923 7095084
0.0077366792 0.044586014 -0.0010175072 7159358
0.0089370031 0.045278601 -0.0010664789 7158322
0.010137323 0.045971192 -0.0011154497 7159079
0.011337645 0.046663761 -0.0011644252 7094578
0.012537967 0.047356348 -0.001213396 6961214
0.013738289 0.04804894 -0.0012623668 6828583
0.014938612 0.048741512 -0.0013113422 6763281
0.01613893 0.049434103 -0.001360313 6698249
0.017339256 0.05012669 -0.0014092838 6567681
0.018539572 0.050819281 -0.0014582556 6502401
0.019739896 0.051511869 -0.0015072888 6239745
0.020940218 0.052204456 -0.0015562596 6043137
0.022140536 0.052897044 -0.0016052313 6173697
0.023404554 0.053388152 -0.0036433563 6238977
0.024601579 0.054078832 -0.0036922232 6239489
0.025798606 0.054769512 -0.0037410292 6240257
0.026995623 0.055460207 -0.0037898924 6239489
0.028192651 0.056150891 -0.0038387603 6238979
0.029389676 0.056841571 -0.0038875653 6435078
0.030586697 0.057532251 -0.0039364332 6630403
0.031743109 0.058437724 -0.0019970099 6828033
0.032924775 0.059238646 -0.0010519838 7090691
0.034143757 0.059822887 -0.0020949552 7025158
0.035344075 0.060515475 -0.0021439269 7027207
0.036530688 0.061319262 -0.0011991486 7158024
0.037732653 0.062012799 -0.0012482032 7354383
0.038934626 0.062706329 -0.0012971992 7551511
0.040136598 0.063399866 -0.0013462538 7816210
0.041338567 0.064093411 -0.0013953075 8012557
0.042540539 0.064786941 -0.0014443649 8274453
0.043734875 0.065714285 0.0004933849 8077342
0.04494014 0.066409729 0.00044422317 7878415
0.046145413 0.067105174 0.00039500277 7682817
0.047350682 0.067800611 0.00034584105 7420431
0.048555944 0.068496063 0.00029668305 7225886
0.04976121 0.069191501 0.00024752133 6965522
-0.046342008 0.012183089 -0.021838263 1711105
-0.04504953 0.012807574 -0.022884056 2362881
-0.043888785 0.013477329 -0.022931393 3083521
-0.042601246 0.014098924 -0.023976944 3148801
-0.041442137 0.014767725 -0.024024263 3216385
-0.040283047 0.015436515 -0.024071522 3543297
-0.039123941 0.016105331 -0.024118837 3938817
-0.037724469 0.016670235 -0.026161902 4267522
-0.036568664 0.017337132 -0.026209056 4663042
-0.035295978 0.0179502 -0.02725403 5057026
-0.034141827 0.01861614 -0.027301099 5449477
-0.032987665 0.01928208 -0.027348168 5646600
-0.031609625 0.019834619 -0.029390395 5909009
-0.030458771 0.020498648 -0.029437363 6106138
-0.029307909 0.021162696 -0.029484324 6304028
-0.028157055 0.021826748 -0.029531285 6436383
-0.027216895 0.022611815 -0.027583629 6632480
-0.026062734 0.023277786 -0.02763075 6763298
-0.025010623 0.024006123 -0.026680622 6960153
-0.02385482 0.024673019 -0.026727773 7091727
-0.022896515 0.025468545 -0.024780974 7288598
-0.021737412 0.026137348 -0.024828229 7747868
-0.020578314 0.026806151 -0.024875548 8272152
-0.019419206 0.027474951 -0.024922865 8011539
-0.01826011 0.028143756 -0.024970122 7749154
-0.017101005 0.028812557 -0.025017437 7814705
-0.016030766 0.029551387 -0.024068035 7944988
-0.014870016 0.030221157 -0.024115432 8009223
-0.013794826 0.030962817 -0.023166284 8140814
-0.01280025 0.031779274 -0.021220889 7944214
-0.011716813 0.032525718 -0.020272152 7748636
-0.010549467 0.033199254 -0.020319767 7487011
-0.0095400531 0.034024283 -0.018374879 7291927
-0.0084467232 0.034776434 -0.017426519 7555852
-0.0074257734 0.035608109 -0.015482153 7883281
-0.0063241986 0.036365017 -0.014534086 7948822
-0.0052916971 0.037203338 -0.012590246 8078863
-0.004181881 0.037965011 -0.011642596 8274953
-0.0031378446 0.038809996 -0.0096990922 8538131
-0.0020197849 0.039576411 -0.0087517388 8275998
-0.00096420432 0.040428083 -0.0068088127 8014117
3.3852179e-05 0.041367829 -0.0038705729 8014381
0.0011667518 0.042142801 -0.0029237866 8079902
0.0023637738 0.042833492 -0.0029726503 7818511
0.0034424379 0.043698464 -0.0010305895 7619598
0.0046427557 0.044391051 -0.0010795621 7356173
0.0058430815 0.045083638 -0.0011285329 7160088
0.0070433994 0.045776229 -0.0011775047 7093027
0.0082437228 0.046468806 -0.0012264792 7093023
0.0094440449 0.047161393 -0.0012754509 7093020
0.010644361 0.04785398 -0.0013244227 7093285
0.011939965 0.048358958 -0.0033634007 6961198
0.013045007 0.049239144 -0.0014223671 6830365
0.014200989 0.050027434 -0.00047656521 6765069
0.01544565 0.050624333 -0.0015203692 6699271
0.016645972 0.051316906 -0.0015693437 6567937
0.017846296 0.052009493 -0.0016183155 6502145
0.019046612 0.052702084 -0.0016672863 6371074
0.02024694 0.05339466 -0.0017162617 6305032
0.021447258 0.054087244 -0.0017652325 6304525
0.022713181 0.054575101 -0.0038029561 6304776
0.0239102 0.055265766 -0.0038517648 6302722
0.025107225 0.055956464 -0.003900629 6304769
0.026304252 0.056647144 -0.003949496 6371585
0.02750127 0.057337824 -0.0039983019 6501122
0.028698295 0.058028515 -0.0040471647 6566404
0.029895322 0.058719184 -0.0040959748 6697475
0.031092342 0.059409879 -0.0041448376 6959873
0.032250151 0.060320515 -0.0022059819 7221508
0.033450469 0.061013088 -0.0022549564 7090183
0.034634482 0.061817564 -0.0013103234 7027208
0.035836458 0.062511116 -0.0013593761 7157770
0.037038423 0.063204646 -0.0014084307 7354383
0.038240395 0.063898176 -0.0014574267 7486996
0.039442368 0.064591706 -0.001506485 7684372
0.040644336 0.065285251 -0.0015555397 7816212
0.041846301 0.065978795 -0.0016045915 7946519
0.043038733 0.066909403 0.00033269916 7880987
0.044250246 0.067365862 -0.001702643 7878680
0.045452219 0.0680594 -0.0017516976 7682580
0.046654541 0.068995744 0.00018515904 7551514
0.047859807 0.069691174 0.00013599638 7225120
0.04906508 0.070386618 8.6835586e-05 6965010
-0.047907118 0.01257306 -0.023942307 3218177
-0.046748016 0.013241861 -0.023989625 2364161
-0.045326866 0.013814904 -0.026032992 2888193
-0.044171058 0.014481798 -0.026080143 3412225
-0.043270718 0.015248269 -0.024131455 3477505
-0.042111613 0.01591707 -0.024178771 3609857
-0.040952519 0.016585872 -0.024226088 3872769
-0.039547838 0.017149404 -0.026268803 4201474
-0.038392041 0.017816301 -0.026315955 4596484
-0.037236232 0.018483195 -0.026363105 4925700
-0.035962597 0.019094631 -0.027407855 5253124
-0.034808442 0.019760586 -0.02745498 5646089
-0.033654284 0.020426527 -0.027502049 5843470
-0.032274339 0.02097578 -0.029543821 6105877
-0.031123482 0.021639813 -0.029590786 6237212
-0.030191824 0.022424363 -0.027643312 6434338
-0.029037662 0.023090318 -0.02769044 6565929
-0.027883511 0.02375626 -0.027737509 6697508
-0.026834 0.024485305 -0.026787579 6959647
-0.025678193 0.025152199 -0.026834732 7156240
-0.024522392 0.025819093 -0.026881885 7289089
-0.023565987 0.026617892 -0.024935482 7486220
-0.022406885 0.02728668 -0.024982743 7748120
-0.021247786 0.02795548 -0.025030058 8075289
-0.020088682 0.028624298 -0.025077373 7946011
-0.01892958 0.029293086 -0.025124632 7749683
-0.017861942 0.030032609 -0.024175435 7814987
-0.016701192 0.030702366 -0.024222773 7813670
-0.015628602 0.031444706 -0.02327377 7944449
-0.014639227 0.032262534 -0.021328729 8075531
-0.013473533 0.03293515 -0.021376319 7944213
-0.012391048 0.033683218 -0.020427752 7814432
-0.011386836 0.034509599 -0.018483154 7618603
-0.010216191 0.035185065 -0.018530931 7489568
-0.0091238152 0.035938852 -0.017582802 7685910
-0.0081047677 0.036773805 -0.015638892 7814933
-0.0070041469 0.037532333 -0.014690998 7946517
-0.0059735519 0.038373936 -0.012747614 8012811
-0.0048646848 0.039137229 -0.011800135 8144897
-0.0038925805 0.040068571 -0.0088615362 8342539
-0.0028421981 0.040921602 -0.0069189034 8145941
-0.001851948 0.041863419 -0.0039811581 8014884
-0.00072165113 0.042639069 -0.00303452 8145459
0.00047537568 0.043329749 -0.0030833865 8275743
0.0016723939 0.044020429 -0.0031321924 7947532
0.0027491546 0.044888679 -0.0011905879 7619334
0.0039494773 0.045581255 -0.0012395633 7421697
0.0051497994 0.046273839 -0.0012885341 7225349
0.0063501205 0.04696643 -0.0013375059 7225609
0.0075504389 0.047659021 -0.0013864767 7226125
0.0087507656 0.048351604 -0.0014355099 7225361
0.009951083 0.049044196 -0.0014844816 7224855
0.011151405 0.049736787 -0.0015334524 7092766
0.012351727 0.05042937 -0.0015824242 7026452
0.013506757 0.051219285 -0.00063679181 6830602
0.014708726 0.051912829 -0.0006858455 6700037
0.015910696 0.05260637 -0.00073490012 6634241
0.01711267 0.0532999 -0.00078395847 6503170
0.018353334 0.053892285 -0.0018272875 6436356
0.019553658 0.054584876 -0.0018762592 6434575
0.020753978 0.055277459 -0.00192523 6435354
0.0220218 0.055762034 -0.0039624968 6501647
0.023218829 0.056452714 -0.0040113647 6435332
0.024415853 0.057143413 -0.0040602274 6434818
0.025612872 0.057834078 -0.0041090371 6435329
0.026809897 0.058524773 -0.0041579003 6501378
0.028006926 0.059215438 -0.00420671 6566403
0.029203944 0.059906129 -0.0042555742 6632706
0.030400967 0.060596816 -0.0043043792 6829058
0.031556871 0.061510731 -0.0023660399 7024389
0.032757189 0.062203318 -0.0024150116 7025672
0.033905726 0.063236445 0.00051626097 7027210
0.035110991 0.063931882 0.00046709832 7092237
0.036316261 0.06462732 0.00041793752 7223311
0.037521534 0.065322757 0.0003687758 7355410
0.038726795 0.066018209 0.0003195554 7486486
0.039932061 0.066713646 0.00027039275 7618075
0.041137334 0.067409076 0.00022123195 7684122
0.042342603 0.068104535 0.00017201528 7748889
0.043547869 0.068799973 0.00012285355 7813664
0.044753131 0.069495417 7.3690899e-05 7748136
0.045958403 0.070190847 2.4530105e-05 7682597
0.047163673 0.070886292 -2.4689361e-05 7421730
0.048368938 0.071581729 -7.3851086e-05 7226641
0.049574204 0.072277166 -0.00012301374 7096833
-0.048576586 0.01372239 -0.024096819 3345665
-0.047417488 0.014391191 -0.024144135 3085057
-0.045994435 0.014960982 -0.0261871 3412993
-0.04483863 0.015627876 -0.026234251 3740161
-0.043682829 0.01629477 -0.026281402 3870721
-0.042527024 0.016961679 -0.026328553 4002818
-0.041371215 0.017628562 -0.026375707 4266244
-0.04021541 0.018295471 -0.026422855 4530435
-0.039059613 0.018962376 -0.026470065 4860162
-0.037783373 0.019573104 -0.02751461 5253634
-0.036629211 0.020239059 -0.027561735 5513986
-0.03547506 0.020905014 -0.027608801 5842693
-0.034320898 0.021570969 -0.027655929 6040327
-0.032939047 0.022116942 -0.029697243 6302735
-0.031788193 0.022780977 -0.029744208 6434070
-0.030637331 0.023445038 -0.029791169 6565153
-0.02970428 0.024234749 -0.027844261 6696235
-0.028657373 0.024964459 -0.026894484 6828327
-0.027501564 0.025631353 -0.026941635 7090723
-0.026345761 0.026298264 -0.026988786 7419417
-0.025189959 0.026965158 -0.027035937 7552015
-0.024235459 0.027767222 -0.025089994 7682833
-0.023076359 0.028436039 -0.025137309 7813907
-0.021917261 0.029104827 -0.025184568 7945492
-0.020758154 0.029773628 -0.025231885 7880725
-0.019693119 0.030513845 -0.024282828 7815200
-0.018532371 0.031183587 -0.024330173 7749676
-0.017371617 0.031853329 -0.024377514 7749399
-0.016299982 0.032597318 -0.023428738 7880451
-0.015312506 0.033418417 -0.021484096 8010253
-0.014232622 0.034167171 -0.020535734 7944471
-0.013065279 0.034840733 -0.020583346 7879976
-0.012062974 0.035670385 -0.018639209 7815737
-0.01089233 0.036345847 -0.018686986 7751714
-0.0099593531 0.037261177 -0.015747607 7750411
-0.008783767 0.037939489 -0.015795574 7815693
-0.0078359433 0.038863357 -0.012856826 7881231
-0.0066554067 0.039544519 -0.012904985 8013834
-0.0056927432 0.04047697 -0.0099667981 8081157
-0.0047911745 0.041499831 -0.0060336101 8145936
-0.0037377472 0.042358976 -0.0040916894 8080411
-0.0025423737 0.043048702 -0.004140473 8014618
-0.0014130236 0.043826014 -0.0031941179 8210970
-0.00021600025 0.044516683 -0.0032429276 8471061
0.00098102144 0.045207378 -0.0032917913 8077072
0.0021780445 0.045898058 -0.0033406587 7683849
0.0033750702 0.046588738 -0.0033894638 7487490
0.0045720935 0.047279418 -0.0034383321 7291396
0.0056568389 0.048156645 -0.0014975648 7292934
0.0068571605 0.048849236 -0.0015465356 7357202
0.0080574825 0.049541824 -0.0015955074 7360285
0.0092066135 0.050330523 -0.00064991415 7356186
0.010458123 0.050926987 -0.0016934536 7290904
0.011658449 0.051619574 -0.0017424254 7223058
0.012812525 0.05241115 -0.00079707801 6961932
0.014014494 0.053104661 -0.00084607676 6764550
0.015216466 0.053798206 -0.00089513045 6632705
0.016418433 0.054491747 -0.00094418507 6567171
0.017660055 0.055082504 -0.001987284 6567173
0.018860374 0.05577508 -0.0020362595 6566676
0.020060699 0.056467667 -0.0020852312 6631972
0.021261018 0.057160251 -0.002134203 6697747
0.022461344 0.057852827 -0.0021831775 6632707
0.023661662 0.058545418 -0.0022321483 6566658
0.024921499 0.059021026 -0.0042686369 6566401
0.026118519 0.05971171 -0.0043174429 6566401
0.027315544 0.06040239 -0.0043663098 6566402
0.028512571 0.06109307 -0.0044151149 6632709
0.029709596 0.06178375 -0.0044639828 6698249
0.030906616 0.062474448 -0.004512846 6829578
0.032103639 0.063165128 -0.0045616529 6895627
0.033246018 0.064201251 -0.0016307803 7026446
0.034414858 0.065127015 0.00030641537 7091730
0.035620123 0.065822452 0.00025725365 7157525
0.036825396 0.066517889 0.00020809192 7224089
0.038030658 0.067213327 0.00015892927 7354650
0.039235927 0.067908771 0.00010971073 7419931
0.040441193 0.068604209 6.0548075e-05 7485726
0.041646466 0.069299638 1.1387281e-05 7617313
0.042851727 0.06999509 -3.7833117e-05 7813673
0.044057 0.070690528 -8.6995773e-05 7813426
0.045262266 0.071385965 -0.00013615657 7814182
0.046467539 0.072081402 -0.00018531829 7618586
0.047672797 0.072776847 -0.00023453869 7489038
0.04887807 0.073472284 -0.00028370041 7292930
-0.048973605 0.014773257 -0.026246849 3280385
-0.047817808 0.015440151 -0.026294 3347201
-0.046661995 0.016107045 -0.026341151 3806465
-0.045506191 0.016773939 -0.026388302 4265729
-0.044350393 0.017440848 -0.026435453 4329473
-0.043194585 0.018107742 -0.026482664 4396036
-0.04203878 0.018774651 -0.026529813 4593671
-0.040882975 0.019441545 -0.026576964 4859652
-0.039727174 0.020108443 -0.026624117 5187841
-0.038571369 0.020775337 -0.026671268 5450497
-0.037295822 0.02138349 -0.02771556 5713409
-0.036141668 0.022049444 -0.027762685 5976577
-0.035103958 0.022776036 -0.026812781 6304513
-0.033833355 0.023381341 -0.027856879 6566921
-0.0326792 0.024047296 -0.027903948 6698001
-0.031525053 0.024713222 -0.027951021 6894879
-0.030480739 0.025443628 -0.027001385 7025454
-0.029324938 0.026110522 -0.027048536 7156010
-0.028169133 0.026777416 -0.027095687 7287591
-0.027013328 0.027444325 -0.027142897 7420450
-0.026064038 0.028247751 -0.025197187 7550750
-0.024904935 0.028916568 -0.0252445 7681302
-0.023745831 0.029585371 -0.025291819 7748878
-0.022586733 0.030254157 -0.025339078 7881743
-0.021427628 0.030922975 -0.025386391 7816208
-0.020268528 0.031591773 -0.025433712 7816206
-0.019202793 0.032334566 -0.02448491 7684109
-0.018133759 0.033079237 -0.02353628 7616521
-0.016971357 0.033749931 -0.023583706 7814662
-0.016074205 0.03465113 -0.020643719 8010767
-0.014906861 0.035324685 -0.020691328 8010777
-0.013739515 0.035998244 -0.020739004 7945520
-0.012739113 0.036831163 -0.018795263 7881031
-0.01156847 0.037506629 -0.01884304 7817252
-0.010638347 0.038426876 -0.015904346 7882241
-0.0094627626 0.039105184 -0.015952315 7947525
-0.0083640423 0.03986698 -0.01500488 7948553
-0.0073372577 0.040715117 -0.013062352 8015113
-0.0064510354 0.041737858 -0.0091296192 8015369
-0.005623546 0.042854551 -0.0042022774 8080661
-0.0044281692 0.043544292 -0.0042510591 8014881
-0.0033014291 0.044322271 -0.0033048559 7946257
-0.002104403 0.045012951 -0.0033536609 7945985
-0.001038047 0.045883935 -0.0014127018 7945738
0.00016226759 0.046576522 -0.0014616735 7814676
0.0013625929 0.047269113 -0.0015106443 7749132
0.0025629122 0.047961686 -0.0015596189 7553540
0.0037632375 0.048654277 -0.0016085915 7357444
0.0049635554 0.04934686 -0.0016575623 7226372
0.0061638812 0.050039452 -0.0017065331 7160855
0.0073642 0.050732024 -0.0017555086 7225898
0.0085645216 0.051424611 -0.0018044794 7356702
0.0097648446 0.052117202 -0.0018534511 7290898
0.010965168 0.052809775 -0.0019024257 7223312
0.012118289 0.053602982 -0.00095730834 7026702
0.013365811 0.054194953 -0.0020003673 6893831
0.014522234 0.054990057 -0.0010553589 6828289
0.015724201 0.055683602 -0.0011044126 6828548
0.016926175 0.056377124 -0.00115347 6764039
0.018128142 0.057070669 -0.0012025237 6764314
0.019330114 0.057764195 -0.0012515206 6830126
0.020567739 0.05835047 -0.0022942619 6896152
0.021768056 0.059043057 -0.0023432327 6764547
0.022968382 0.059735648 -0.0023922035 6698754
0.024168704 0.060428221 -0.0024411799 6633473
0.025427146 0.060898654 -0.0044770427 6633729
0.026569346 0.061813395 -0.0025391215 6567681
0.027769662 0.06250599 -0.0025880942 6501897
0.02896999 0.063198559 -0.0026370669 6632977
0.030170307 0.063891143 -0.0026860395 6698512
0.031412262 0.064352058 -0.004721256 6764303
0.03255178 0.065393105 -0.0017910069 6894611
0.033718716 0.066322118 0.00014578737 6894871
0.034923982 0.06701757 9.6566975e-05 6960923
0.036129255 0.067713007 4.740525e-05 7026208
0.03733452 0.068408437 -1.7564744e-06 7091741
0.038539793 0.069103874 -5.091913e-05 7222299
0.039745055 0.069799326 -0.00010013767 7418146
0.040950328 0.070494756 -0.00014929939 7616809
0.04215559 0.071190193 -0.00019846205 7815730
0.043360855 0.071885645 -0.00024768151 7881532
0.044566125 0.072581075 -0.00029684324 7947303
0.045771398 0.07327652 -0.00034600496 7816466
0.046976663 0.073971957 -0.00039516762 7751434
0.048184197 0.07479655 0.00054787379 7620867
0.049391113 0.075492941 0.00049862731 7491074
-0.048485372 0.016586229 -0.02644811 3609345
-0.047329567 0.017253123 -0.026495263 4199937
-0.046173763 0.017920017 -0.026542414 4789761
-0.045017961 0.018586911 -0.026589565 4788225
-0.043733217 0.019198187 -0.02763398 4789763
-0.042706348 0.019920703 -0.026683867 4986885
-0.041550543 0.020587612 -0.026731018 5252869
-0.040270746 0.021196038 -0.027775243 5449989
-0.039116599 0.021861993 -0.027822368 5712388
-0.037962437 0.022527931 -0.027869441 5911042
-0.036808286 0.023193873 -0.02791651 6173186
-0.03577153 0.023922101 -0.026966833 6501890
-0.034499973 0.024525771 -0.028010704 6895113
-0.033345811 0.025191724 -0.028057832 7026447
-0.032304116 0.025922798 -0.027108286 7223589
-0.031148307 0.026589707 -0.027155492 7355195
-0.02999251 0.027256597 -0.027202647 7485490
-0.028836701 0.027923495 -0.027249798 7419178
-0.027892616 0.028728295 -0.02530444 7418915
-0.026733514 0.02939711 -0.025351753 7549980
-0.025574407 0.030065898 -0.025399014 7681809
-0.024415305 0.030734701 -0.025446329 7749383
-0.023256207 0.031403504 -0.025493585 7814664
-0.022194723 0.032146022 -0.024544911 7814666
-0.021033969 0.032815792 -0.02459231 7814920
-0.019967534 0.033561125 -0.023643769 7684103
-0.018990468 0.034384955 -0.021699771 7552773
-0.017824769 0.035057575 -0.021747358 7814660
-0.01674844 0.035808645 -0.020799313 8076556
-0.015581096 0.0364822 -0.020846985 8076052
-0.014585895 0.037316483 -0.01890354 8076583
-0.013415251 0.037991948 -0.018951319 7946297
-0.012492931 0.038914233 -0.016013063 7882782
-0.011317343 0.039592553 -0.016061027 7948292
-0.010221234 0.04035503 -0.015113802 8079880
-0.0095109586 0.041545048 -0.0091909878 8015629
-0.0084761865 0.042402189 -0.0072492901 8015630
-0.0072857556 0.043089066 -0.0072978842 8015632
-0.0063139689 0.044039868 -0.0043616481 8014877
-0.0051185922 0.04472959 -0.0044104322 7949355
-0.0039928057 0.045509204 -0.0034643961 7947809
-0.0027957745 0.046199888 -0.003513264 7685143
-0.0017313301 0.04707415 -0.0015726984 7423265
-0.0005310108 0.047766726 -0.0016216747 7620139
0.00066931453 0.048459314 -0.0016706455 7816474
0.0018696324 0.049151901 -0.0017196164 7619593
0.003069958 0.049844492 -0.0017685881 7422983
0.004270277 0.050537065 -0.0018175626 7161093
0.0054705986 0.051229656 -0.0018665344 6964237
0.0066709206 0.051922243 -0.0019155061 7160853
0.0078712404 0.052614816 -0.0019644806 7422481
0.0090715662 0.053307403 -0.0020134514 7290893
0.010271883 0.05399999 -0.0020624241 7224076
0.011424057 0.054794833 -0.0011175359 7091723
0.012672529 0.055385154 -0.0021603694 7025414
0.013872849 0.056077745 -0.0022093402 7024897
0.015029971 0.05687543 -0.0012646448 7090691
0.016231937 0.057568975 -0.0013136966 7026436
0.017433908 0.058262516 -0.0013627512 6960654
0.01863588 0.058956046 -0.0014117481 7028247
0.019837853 0.059649587 -0.0014608027 7093262
0.021039817 0.060343128 -0.0015098564 6962181
0.02224179 0.061036658 -0.0015589129 6831109
0.023475422 0.06161844 -0.0026011774 6765573
0.024675742 0.062311027 -0.0026501482 6700036
0.025847698 0.063117266 -0.0017060181 6569220
0.027049668 0.06381081 -0.0017550727 6437394
0.028251642 0.06450434 -0.0018041292 6502432
0.029453615 0.065197885 -0.0018531838 6633497
0.030655587 0.065891407 -0.0019021807 6699537
0.03181731 0.066821799 3.4262426e-05 6763032
0.033022583 0.067517236 -1.4899299e-05 6762528
0.034227852 0.068212673 -6.4061023e-05 6828574
0.035433117 0.068908118 -0.00011328142 6829340
0.036638379 0.069603555 -0.00016244408 6894618
0.037843652 0.070298992 -0.00021160487 7090967
0.039048921 0.070994429 -0.00026076753 7353625
0.040254187 0.071689881 -0.00030998606 7551002
0.041459452 0.072385319 -0.00035914779 7815200
0.042664725 0.073080741 -0.00040831044 7947302
0.043869991 0.073776193 -0.00045752991 8078365
0.045073278 0.074600525 0.0004854463 8078356
0.046280194 0.075296909 0.00043620076 8078607
0.04748974 0.076254874 0.0023707123 7948810
0.048699953 0.076953158 0.0023213597 7818248
-0.049152944 0.017732292 -0.026602164 4135681
-0.047997139 0.018399186 -0.026649315 4593665
-0.046841331 0.01906608 -0.026696466 5051649
-0.045685533 0.019732974 -0.026743617 5117697
-0.044399835 0.020342626 -0.027787864 5183746
-0.043245673 0.02100857 -0.02783493 5315588
-0.042091526 0.021674525 -0.027881999 5515015
-0.040937364 0.022340482 -0.027929123 5777418
-0.039783221 0.023006422 -0.027976193 5974535
-0.038629055 0.023672363 -0.028023321 6172932
-0.037474904 0.024338318 -0.02807039 6435588
-0.036320746 0.025004258 -0.028117459 6763780
-0.035166591 0.025670214 -0.028164584 7091721
-0.034012433 0.026336156 -0.028211653 7223310
-0.032971684 0.027068876 -0.027262397 7422251
-0.031815875 0.02773577 -0.027309548 7486536
-0.030660078 0.028402664 -0.027356695 7551290
-0.029721186 0.029208835 -0.025411632 7354413
-0.028562088 0.02987764 -0.025458949 7224355
-0.027402986 0.030546442 -0.025506265 7355162
-0.02624388 0.031215245 -0.025553521 7551501
-0.025084779 0.031884044 -0.025600839 7617281
-0.023925679 0.032552846 -0.025648156 7683330
-0.02286515 0.033296995 -0.024699649 7748612
-0.021801312 0.034043025 -0.023751315 7813890
-0.020829443 0.034868233 -0.021807607 7749377
-0.019757362 0.035619032 -0.020859685 7750401
-0.018865937 0.036530048 -0.017920889 7880450
-0.017603321 0.037126347 -0.018964097 8077065
-0.01652135 0.037882868 -0.018016551 8142352
-0.015523108 0.038723294 -0.016073871 8273438
-0.014432894 0.039484549 -0.015126621 8077868
-0.013255656 0.04016383 -0.01517467 7948313
-0.012242569 0.041012794 -0.013232622 7948807
-0.011383751 0.042037204 -0.0093008466 8014860
-0.010196621 0.04272218 -0.0093492735 8015121
-0.0091637522 0.043582585 -0.0074079745 7950356
-0.0081997644 0.044535436 -0.0044722366 7949591
-0.0070043919 0.045225181 -0.004521017 7883814
-0.0058090151 0.045914896 -0.0045697438 7948854
-0.0046841814 0.046696153 -0.0036239959 8013874
-0.0034871544 0.047386818 -0.0036728056 7817262
-0.0022901292 0.048077516 -0.0037216689 7620920
-0.0012242906 0.048956942 -0.0017816713 7685955
-2.3968983e-05 0.049649529 -0.001830643 7751208
0.001176354 0.050342102 -0.0018796176 7620366
0.0023766756 0.051034693 -0.0019285893 7490314
0.0035769974 0.051727284 -0.0019775601 7291910
0.0047773169 0.052419856 -0.0020265365 7096067
0.0059776418 0.053112444 -0.0020755073 7357953
0.0071779601 0.053805035 -0.0021244781 7620100
0.0084830839 0.054293659 -0.0041612242 7356680
0.0095786043 0.055190209 -0.0022224821 7159304
0.010729823 0.055986684 -0.0012777625 7026441
0.011979248 0.056575384 -0.0023204256 6895109
0.013179567 0.057267956 -0.0023693992 6893826
0.014335733 0.058067285 -0.0014248705 6894338
0.015537705 0.058760822 -0.0014739251 6895106
0.016739676 0.059454367 -0.0015229788 6960641
0.017941648 0.060147896 -0.0015719747 7028225
0.019143619 0.060841426 -0.0016210331 7158788
0.020345585 0.061534964 -0.0016700868 7027719
0.021547558 0.062228508 -0.0017191414 6897672
0.022749528 0.062922046 -0.0017681951 6832394
0.023951501 0.063615575 -0.001817192 6832904
0.025153466 0.064309105 -0.0018662494 6765575
0.026355438 0.06500265 -0.0019153031 6700059
0.02755741 0.065696195 -0.0019643558 6633520
0.028759383 0.066389732 -0.0020134104 6633506
0.029961351 0.067083262 -0.0020624073 6567700
0.031121178 0.068016924 -0.00012642518 6566174
0.032326441 0.068712354 -0.0001755869 6631465
0.033531714 0.069407791 -0.0002247477 6696993
0.034736976 0.070103228 -0.00027391035 6696473
0.035927769 0.070922539 0.00066929962 6761750
0.037147515 0.07149411 -0.00037229154 6959636
0.038341597 0.072315313 0.0005708104 7223056
0.039558049 0.072884984 -0.00047061499 7419660
0.040763311 0.073580429 -0.00051983353 7683598
0.041968584 0.074275866 -0.00056899618 7880465
0.043169271 0.075100869 0.00037383288 8077332
0.044376187 0.07579726 0.00032458734 8078103
0.045580529 0.076756611 0.002258813 8143636
0.046791464 0.077719741 0.0041928813 8012817
0.048006993 0.078553297 0.0051349578 7882254
0.049222153 0.079254471 0.0050853649 7490316
-0.0486647 0.019545265 -0.026803423 4987905
-0.047508895 0.020212159 -0.026850574 5314561
-0.046353098 0.020879053 -0.026897728 5444865
-0.045066454 0.021487057 -0.027941685 5577473
-0.043912295 0.022153014 -0.02798881 5710082
-0.042758141 0.022818955 -0.028035879 5841414
-0.041603982 0.023484897 -0.028082948 6038538
-0.040449835 0.024150852 -0.028130077 6302214
-0.039295677 0.024816791 -0.028177146 6500611
-0.038141523 0.025482746 -0.028224271 6697737
-0.037106659 0.026214238 -0.027274996 6960143
-0.035950854 0.026881134 -0.027322147 7288078
-0.034795057 0.027548041 -0.027369294 7485965
-0.033639248 0.028214937 -0.027416445 7683361
-0.032708868 0.029020563 -0.025471568 7617845
-0.031549755 0.029689379 -0.025518883 7616816
-0.030390654 0.030358182 -0.025566202 7288875
-0.029231559 0.031026971 -0.025613461 7027497
-0.028072458 0.031695791 -0.025660772 7225127
-0.02691335 0.032364577 -0.025708035 7485719
-0.02585707 0.033108465 -0.024759648 7550982
-0.024696322 0.03377822 -0.024807047 7616524
-0.023635086 0.034524944 -0.023858856 7682065
-0.02276629 0.035429433 -0.020920057 7814428
-0.021791391 0.03626075 -0.018976877 7880487
-0.020715319 0.037016045 -0.01802931 7946780
-0.019728871 0.037854042 -0.016086711 8012049
-0.018370733 0.038368877 -0.018125031 8077329
-0.017377697 0.039210677 -0.016182644 8274448
-0.016202103 0.039888989 -0.016230609 8471322
-0.015285498 0.040821057 -0.013293678 8209701
-0.014189633 0.041587759 -0.012346932 8012820
-0.013173513 0.042442877 -0.010405464 8012548
-0.011988033 0.043126896 -0.010453808 8014356
-0.011041751 0.044076119 -0.0075181234 7949348
-0.0099294037 0.044852328 -0.0065720291 7949346
-0.0088901911 0.045720741 -0.0046315491 7883809
-0.0077696019 0.046501722 -0.0036858646 7818292
-0.0065725748 0.047192406 -0.0037347316 7948102
-0.0053755534 0.04788309 -0.0037835375 8079413
-0.0041785273 0.048573766 -0.0038324045 7948836
-0.0031178878 0.04945457 -0.0018926971 7883300
-0.001917569 0.050147142 -0.0019416725 7817764
-0.00058746012 0.050645825 -0.0039789416 7751958
0.00048307423 0.051532317 -0.0020396151 7620871
0.0016833975 0.052224893 -0.0020885905 7555077
0.002883719 0.052917484 -0.0021375613 7422723
0.0040840372 0.053610083 -0.0021865917 7292162
0.0052843625 0.054302674 -0.0022355625 7555073
0.0064846817 0.05499525 -0.0022845371 7881730
0.0076850033 0.055687837 -0.0023335088 7488004
0.0088853249 0.056380425 -0.0023824805 7093252
0.010085644 0.057073001 -0.0024314541 6961413
0.011237565 0.057872064 -0.0014870465 6829827
0.012439532 0.058565591 -0.0015360434 6763010
0.013641501 0.059259132 -0.0015850971 6697731
0.014843471 0.059952673 -0.0016341517 6829317
0.016045444 0.060646202 -0.00168321 7027206
0.017247416 0.061339747 -0.0017322637 7094023
0.018449385 0.062033273 -0.0017812597 7224589
0.019577626 0.062953077 0.00015551876 7093523
0.020782897 0.063648507 0.00010635797 6962966
0.021988161 0.064343944 5.7195313e-05 6963994
0.023257261 0.06480743 -0.00197748 6962961
0.024459234 0.065500952 -0.002026476 6961928
0.025661204 0.066194497 -0.0020755306 6961424
0.026863176 0.066888034 -0.0021245843 6764568
0.028065149 0.067581579 -0.0021736389 6632981
0.029267112 0.068275124 -0.0022226926 6501650
0.03042504 0.069212019 -0.00028705318 6434848
0.03160993 0.070030123 0.00065611769 6499374
0.032816842 0.070726514 0.00060687214 6630173
0.034023758 0.071422905 0.00055762846 6630157
0.035230678 0.072119288 0.00050838385 6630926
0.036437597 0.072815679 0.00045913924 6894096
0.037644513 0.07351207 0.00040989276 7157264
0.038851433 0.074208453 0.00036065001 7354128
0.040058341 0.074904844 0.0003114054 7552014
0.041265268 0.075601235 0.00026215985 7815436
0.042472176 0.076297618 0.00021291617 8077585
0.043671321 0.077258334 0.0021468466 8143382
0.044881534 0.077956632 0.0020974381 8208661
0.046090566 0.078923039 0.0040311106 8077589
0.047305137 0.079758234 0.004972958 8012562
0.048520301 0.080459371 0.0049233558 7620622
-0.049332272 0.020691328 -0.026957475 5317121
-0.048041377 0.021299608 -0.028001368 5577473
-0.04688723 0.021965548 -0.028048437 5710593
-0.045733068 0.022631487 -0.028095569 5909249
-0.04457891 0.023297444 -0.028142635 6040321
-0.043424759 0.023963399 -0.02818976 6236933
-0.042270597 0.024629338 -0.028236829 6371082
-0.041116454 0.02529528 -0.028283902 6505478
-0.039962292 0.025961233 -0.028331026 6632195
-0.038808141 0.026627176 -0.028378095 6829583
-0.037774231 0.027360303 -0.027429048 7025691
-0.036618423 0.028027197 -0.027476199 7288083
-0.035462625 0.028694106 -0.02752341 7485452
-0.034537431 0.029501105 -0.025578819 7683607
-0.033378344 0.030169908 -0.025626078 7683362
-0.032219231 0.030838711 -0.025673393 7616805
-0.031060126 0.031507514 -0.025720712 7485481
-0.029901035 0.032176316 -0.025767967 7355183
-0.02874193 0.032845117 -0.025815284 7485749
-0.027688254 0.033589691 -0.024867047 7616544
-0.026527496 0.034259431 -0.024914388 7682828
-0.025468864 0.035006847 -0.023966402 7749653
-0.024507405 0.035834774 -0.022023283 7814943
-0.023638172 0.03674607 -0.019085154 7880502
-0.0225647 0.037502058 -0.018137794 7946317
-0.021392409 0.038178459 -0.018185595 8013111
-0.02040787 0.039019722 -0.016243391 8012065
-0.019047823 0.039531279 -0.018281259 8077337
-0.018056694 0.040376361 -0.016339324 8012817
-0.016970027 0.041139934 -0.015392453 8013335
-0.015967347 0.041991647 -0.013451048 8013854
-0.014872439 0.042759988 -0.012504528 8014607
-0.013858225 0.043618362 -0.010563461 8079873
-0.012672743 0.044302396 -0.010611865 8145180
-0.011567945 0.045076441 -0.0096657844 8014903
-0.010538887 0.045943391 -0.0077253436 7884081
-0.009580614 0.046906054 -0.0047909184 7753004
-0.008385241 0.047595784 -0.0048397034 7621953
-0.0072639515 0.048379339 -0.0038942732 7752791
-0.00606693 0.049070038 -0.0039431369 7949369
-0.004869903 0.049760707 -0.0039919456 7883803
-0.0038111699 0.05064477 -0.0020526983 7818512
-0.0026108511 0.051337346 -0.0021016737 7817734
-0.0012788363 0.051832765 -0.0041384827 7753219
-0.00021020742 0.052722536 -0.002199675 7751937
0.00099011417 0.053415123 -0.0022486458 7816705
0.0021904358 0.054107711 -0.0022976166 7554049
0.0033907585 0.054800287 -0.002346592 7357185
0.0045910804 0.055492874 -0.0023955638 7422721
0.005791402 0.056185465 -0.0024445346 7553793
0.0069917212 0.056878038 -0.00249351 7225601
0.0081393886 0.057676826 -0.0015491666 6961921
0.0093413601 0.05837037 -0.0015982203 6895873
0.010543329 0.059063911 -0.0016472749 6830081
0.0117453 0.059757445 -0.0016962709 6699266
0.012855152 0.060670987 0.00024075713 6568709
0.014060419 0.061366435 0.00019153766 6831369
0.015265688 0.062061872 0.00014237594 7028491
0.016470954 0.062757306 9.3214214e-05 7159309
0.017676223 0.06345275 4.4052489e-05 7224854
0.018843671 0.064262949 0.00098770205 7224863
0.02008676 0.064843625 -5.4328702e-05 7159588
0.021292031 0.065539062 -0.00010349043 7158826
0.022563029 0.065999277 -0.0021377085 7158298
0.023765001 0.066692807 -0.0021867044 7288842
0.024966972 0.067386344 -0.0022357581 7352581
0.026168944 0.068079889 -0.0022848127 6959105
0.027318366 0.06901627 -0.0003494164 6565641
0.02857288 0.069466978 -0.0023829201 6369041
0.029728901 0.070407145 -0.00044773985 6172450
0.030934174 0.071102582 -0.00049690064 6434355
0.032119758 0.071923241 0.00044601411 6629658
0.033326674 0.072619639 0.00039676949 6500353
0.034533586 0.073316023 0.00034752581 6436871
0.035740502 0.074012414 0.0002982812 6764301
0.036947418 0.074708804 0.00024903659 7157264
0.038154341 0.075405188 0.00019979011 7419668
0.039361257 0.076101579 0.00015054643 7682574
0.040568177 0.076797985 0.00010124501 7880456
0.041762114 0.077760056 0.0020348812 8144142
0.042972326 0.078458339 0.0019855285 8273941
0.044182543 0.07915663 0.00193612 8405015
0.045388132 0.08026202 0.0048605585 8208410
0.046603289 0.080963165 0.0048109582 8012053
0.047821958 0.081939481 0.0067435848 7619345
0.049040418 0.082642563 0.0066938261 7228459
-0.048707992 0.022444051 -0.028155249 5843714
-0.047553848 0.023109974 -0.028202321 6040833
-0.046399686 0.023775917 -0.02824939 6237444
-0.045245528 0.024441872 -0.028296519 6434055
-0.044091374 0.025107827 -0.028343584 6631192
-0.042937215 0.025773782 -0.028390709 6636585
-0.041783068 0.026439724 -0.028437782 6700821
-0.04062891 0.027105652 -0.028484851 6829570
-0.039474756 0.02777162 -0.028531976 6960136
-0.0384418 0.02850638 -0.027583156 7156495
-0.037285995 0.029173275 -0.027630307 7353355
-0.036130197 0.029840169 -0.027677462 7550726
-0.035206906 0.030650452 -0.025733329 7749136
-0.034047808 0.031319253 -0.025780646 7683354
-0.033001672 0.032061659 -0.024832364 7682591
-0.031840924 0.032731399 -0.024879705 7682084
-0.030680172 0.033401154 -0.024927046 7748386
-0.029519428 0.034070909 -0.024974447 7747360
-0.028358679 0.034740664 -0.025021784 7747859
-0.027302645 0.035488736 -0.024073891 7814662
-0.026346382 0.036318049 -0.022131119 7946253
-0.025484957 0.037231401 -0.019193426 7947028
-0.024414081 0.037988052 -0.018246217 7946787
-0.023438044 0.038828783 -0.016304199 8012082
-0.022262454 0.03950711 -0.016352164 8077606
-0.021086864 0.040185422 -0.016400132 8077595
-0.019911278 0.040863745 -0.016448095 8077846
-0.018827215 0.041627999 -0.015501372 7816978
-0.017829739 0.042481069 -0.013560262 7620892
-0.016737431 0.043250095 -0.012613888 7818023
-0.015728418 0.044109844 -0.010673172 8079902
-0.014627868 0.044883631 -0.0097271539 8210709
-0.013440736 0.045568604 -0.0097755808 8342047
-0.012253605 0.046253577 -0.0098240096 8080425
-0.011226453 0.047123797 -0.0078840861 7883815
-0.010271035 0.048091356 -0.0049502915 7622437
-0.009075664 0.048781101 -0.0049990723 7425586
-0.0079553276 0.049566288 -0.004053873 7622207
-0.0067583066 0.050256968 -0.0041026799 7884073
-0.0057047713 0.051142413 -0.0021637827 7818260
-0.0045044483 0.051834989 -0.0022127582 7817996
-0.0033041346 0.052527577 -0.002261729 7817731
-0.0021038088 0.053220164 -0.0023106998 7817730
-0.00090349093 0.053912755 -0.0023596724 7948802
0.00029683579 0.054605328 -0.002408647 8078857
0.0014971534 0.055297915 -0.0024576178 7751441
0.002697479 0.055990506 -0.0025065895 7487246
0.0038392451 0.056788068 -0.001562288 7355916
0.0050981198 0.057375666 -0.0026045358 7225099
0.0062431847 0.058175135 -0.0016603395 7028746
0.0074451561 0.058868676 -0.0017093932 6896903
0.0086471271 0.059562221 -0.0017584469 6897157
0.0098490976 0.060255751 -0.0018075053 6896899
0.011051064 0.060949277 -0.0018565012 6700034
0.012159012 0.061866101 8.0070458e-05 6503436
0.01336428 0.062561542 3.0908734e-05 6765845
0.014525833 0.063370533 0.00097451918 7093276
0.015774816 0.063952424 -6.7471527e-05 7158819
0.016939666 0.064763308 0.00087602995 7290401
0.018146582 0.065459713 0.00082678907 7356960
0.019353496 0.066156104 0.00077754445 7421993
0.020560414 0.066852495 0.00072829984 7421234
0.021801155 0.067429617 -0.00031333975 7420196
0.022974251 0.068245277 0.00062981062 7615765
0.024181167 0.068941668 0.000580566 7810317
0.025388084 0.069638051 0.00053132139 7153158
0.026594996 0.070334442 0.00048207771 6563852
0.027827498 0.070906818 -0.00055926386 6236690
0.029032763 0.071602263 -0.00060842559 5975324
0.03021575 0.072423607 0.00033434294 6303782
0.031422667 0.073119998 0.00028509833 6696726
0.032629583 0.073816389 0.00023585465 6438405
0.033836503 0.074512772 0.00018660817 6240523
0.035043418 0.075209163 0.00013736542 6699793
0.036250331 0.075905584 8.8126399e-05 7223569
0.037457246 0.076601967 3.8882717e-05 7485457
0.038664162 0.077298358 -1.0362826e-05 7813397
0.039871082 0.077994749 -5.9607439e-05 8011290
0.041077998 0.07869114 -0.00010885205 8207898
0.042273331 0.079658389 0.001824161 8404761
0.043475255 0.080629423 0.0037570801 8666917
0.044688772 0.081329606 0.0037075626 8339505
0.045901436 0.082168102 0.0046489583 8011805
0.047118209 0.083147682 0.0065811248 7618314
0.048336662 0.083850749 0.0065314239 7293464
0.049555119 0.084553786 0.0064817155 7033126
-0.049374603 0.023588466 -0.028309077 6108932
-0.048220459 0.024254406 -0.028356146 6239745
-0.047066297 0.024920361 -0.028403271 6370567
-0.045912135 0.025586303 -0.02845034 6501389
-0.044757985 0.026252259 -0.028497469 6632235
-0.043603823 0.026918199 -0.028544538 6633033
-0.042449679 0.027584139 -0.028591607 6699557
-0.04142097 0.028318655 -0.027642906 6763009
-0.040265173 0.028985549 -0.027690057 6892802
-0.039109364 0.029652443 -0.027737208 7025156
-0.038194582 0.030462179 -0.025793267 7222018
-0.037035488 0.031130981 -0.025840525 7354369
-0.035876378 0.031799782 -0.025887839 7552521
-0.034832854 0.032542866 -0.024939705 7551250
-0.033672098 0.033212636 -0.024987102 7614744
-0.032623619 0.033958539 -0.024039164 7681823
-0.031461213 0.034629248 -0.024086587 7813909
-0.030298814 0.035299942 -0.024134012 7879179
-0.029351059 0.036128711 -0.022191368 7944710
-0.028291035 0.036881302 -0.021244006 7945473
-0.027331736 0.03771672 -0.019301701 8011781
-0.026468221 0.038637843 -0.016364945 8012042
-0.025292631 0.039316155 -0.016412914 7947793
-0.02411704 0.039994467 -0.016460881 8013080
-0.023038881 0.040757507 -0.015514194 8078358
-0.021861637 0.041436788 -0.015562244 8078357
-0.020684401 0.042116035 -0.015610236 8078612
-0.019784607 0.043058086 -0.012675007 8012564
-0.018602423 0.043740198 -0.012723248 7946530
-0.017598607 0.044601321 -0.010782822 8012848
-0.01641313 0.04528534 -0.010831168 8079404
-0.015313532 0.046060748 -0.0098853819 7947817
-0.0141264 0.046745732 -0.0099338684 7816482
-0.012939269 0.047430713 -0.0099822963 7817755
-0.01191402 0.0483042 -0.0080427695 7817756
-0.010961458 0.049276657 -0.005109604 7686686
-0.0097660869 0.049966399 -0.0051583843 7621410
-0.0086467043 0.050753225 -0.0042134151 7751207
-0.0074496823 0.05144392 -0.0042622783 7880986
-0.0063980543 0.052332614 -0.002323783 7881998
-0.0051977322 0.053025205 -0.0023727557 7883015
-0.003997412 0.053717781 -0.0024217302 7817473
-0.0027970872 0.054410364 -0.002470701 7816962
-0.0015967693 0.055102956 -0.0025196727 7817219
-0.00039644353 0.055795547 -0.0025686445 7882258
0.00080387527 0.056488115 -0.0026176199 7620385
0.0020041969 0.057180706 -0.0026665907 7355164
0.0031450123 0.057979915 -0.0017225156 7223575
0.0044048368 0.058565885 -0.0027645333 7157781
0.0055489521 0.059366982 -0.0018205671 7027220
0.0067509245 0.060060512 -0.0018696235 6896910
0.0079528922 0.060754053 -0.0019186782 6962697
0.0091548646 0.061447598 -0.0019677319 7028230
0.010356832 0.062141143 -0.0020167856 6830851
0.011462878 0.063061222 -8.0615282e-05 6699026
0.012668146 0.06375666 -0.00012977794 6895138
0.013828743 0.064567268 0.00081366207 7091502
0.015078681 0.065147541 -0.0002281582 7223610
0.016242577 0.065960079 0.0007151179 7356205
0.017449491 0.06665647 0.00066587236 7357217
0.018656407 0.067352861 0.00061662775 7423022
0.019863322 0.068049245 0.00056738313 7355963
0.02107024 0.068745635 0.00051813852 7223598
0.022277158 0.069442019 0.00046889391 7090721
0.023484077 0.07013841 0.00041965023 6891798
0.024690993 0.070834801 0.00037040468 6695179
0.025897911 0.071531191 0.00032116007 6498575
0.027104829 0.072227575 0.00027191546 6433044
0.028311748 0.072923966 0.00022267178 6368023
0.029518658 0.073620357 0.00017342716 6565146
0.030725572 0.074316777 0.00012418907 6829586
0.031932492 0.075013168 7.4944459e-05 6698250
0.033139408 0.075709552 2.5698915e-05 6632719
0.034346323 0.076405942 -2.3544766e-05 6961429
0.035553243 0.077102333 -7.2788447e-05 7224337
0.036760163 0.077798717 -0.00012203399 7485198
0.037967071 0.078495108 -0.0001712786 7746589
0.039173998 0.079191498 -0.00022052415 7942957
0.040364124 0.080160104 0.0017121946 8139557
0.041560847 0.081132509 0.0036448222 8338718
0.042769264 0.081970714 0.0045861518 8469811
0.043984421 0.082671858 0.0045365533 8207944
0.045195993 0.083652839 0.0064684311 7946277
0.046414293 0.084496789 0.0074093314 7619075
0.047634404 0.085200757 0.0073595969 7358469
0.048854511 0.085904777 0.007309814 7097607
-0.049765311 0.024605807 -0.030455019 6371083
-0.048614457 0.025269853 -0.03050198 6436358
-0.047732916 0.026064776 -0.028557099 6501643
-0.046578754 0.026730746 -0.028604221 6566672
-0.045424599 0.027396686 -0.02865129 6698019
-0.044270441 0.028062643 -0.028698415 6698551
-0.043116294 0.028728584 -0.028745487 6699042
-0.042088542 0.029464718 -0.027796958 6762253
-0.040932741 0.030131625 -0.027844168 6828040
-0.039776936 0.030798521 -0.027891319 6959362
-0.038621131 0.031465419 -0.02793847 7090949
-0.037704956 0.032280326 -0.025995094 7223561
-0.036545847 0.032949112 -0.02604235 7354132
-0.035503272 0.033693843 -0.025094442 7419167
-0.034457389 0.034440454 -0.024146706 7550493
-0.033294998 0.035111152 -0.024194133 7747355
-0.032132596 0.03578186 -0.024241554 7945490
-0.031190038 0.036611971 -0.022299208 8011017
-0.03013261 0.037365261 -0.021351989 8141833
-0.028965268 0.038038801 -0.021399602 8141833
-0.028007876 0.038877502 -0.019457757 8142605
-0.02714722 0.039803538 -0.016521685 8077074
-0.026073303 0.040566307 -0.015575062 8012568
-0.024896063 0.041245561 -0.015623055 8013599
-0.023718828 0.041924842 -0.015671104 8079388
-0.022735048 0.042778749 -0.013730469 8079897
-0.021554513 0.043459907 -0.013778627 8144407
-0.02046741 0.044230305 -0.012832608 8208662
