# .PCD v0.7 - Point Cloud Data file format
VERSION 0.7
FIELDS x y z rgba
SIZE 4 4 4 4
TYPE F F F U
COUNT 1 1 1 1
WIDTH 987
HEIGHT 1
VIEWPOINT 0 0 0 1 0 0 0
POINTS 987
DATA ascii
-0.011061568 0.00021994486 0.0026698676 2960385
-0.0099281408 0.00080156885 0.0022573438 1905921
-0.0087947287 0.0013831854 0.0018448798 922881
-0.0082480442 0.00017705001 0.0016463964 2299649
-0.009333808 0.0041151084 -8.7979657e-05 3739905
-0.0087886602 0.0029124003 -0.00028592668 2953985
-0.0076613054 0.0019648075 0.0014324157 2233601
-0.0076983944 0.00050698966 -0.00068182073 3216385
-0.0087487474 0.0058977827 -0.00030130468 3672321
-0.0082036164 0.0046950728 -0.00049925171 3084545
-0.0076584835 0.0034923665 -0.00069719873 3282689
-0.0071133338 0.0022896659 -0.00089514576 3544065
-0.0065682009 0.0010869559 -0.0010930927 4199169
-0.0079105571 0.0063433908 -0.0016704829 3281665
-0.007366199 0.0051424038 -0.0018681319 3346945
-0.006821841 0.0039414093 -0.0020658406 3805953
-0.0062774848 0.0027404204 -0.0022634896 4264961
-0.0057331268 0.0015394241 -0.0024611386 4791042
-0.0051887706 0.00033843704 -0.0026588473 5382660
-0.0098714903 0.0098238382 -0.0062786969 4142337
-0.0087468997 0.0089086555 -0.0045592817 3154434
-0.0082048718 0.007712828 -0.0047560963 2233089
-0.0073692333 0.0066521578 -0.0039957198 2954241
-0.0068264287 0.0054545943 -0.0041928324 3674369
-0.0062836241 0.004257042 -0.004389945 4329217
-0.0051489007 0.0033195596 -0.0026742253 4987393
-0.0046045426 0.0021185633 -0.0028718743 5450241
-0.0046552271 0.00066435523 -0.0049812826 5976322
-0.0092914365 0.01159125 -0.0064902338 4074753
-0.0087509602 0.010398835 -0.0066864523 3675138
-0.0076231565 0.0094853081 -0.0049682292 3281411
-0.0070811268 0.0082894806 -0.0051650438 2887938
-0.0062438808 0.0072296392 -0.0044052633 3543297
-0.0051090438 0.0063006803 -0.0026895436 4264193
-0.0051582735 0.0048345216 -0.0047994885 4855809
-0.004615467 0.0036369544 -0.004996601 5513217
-0.0040726624 0.0024394002 -0.005193654 5910785
-0.0035298727 0.0012418367 -0.0053907665 6370817
-0.0029870681 4.4282526e-05 -0.0055878791 6568193
-0.0075834543 0.012453651 -0.0049835476 3475713
-0.0070414394 0.011257809 -0.0051803621 3213825
-0.0064994115 0.010061963 -0.0053771767 3410946
-0.0059573818 0.008866135 -0.0055739912 3607554
-0.0051185284 0.0078071207 -0.0048148069 4197378
-0.0045757238 0.0066095591 -0.0050119194 4855041
-0.0040329192 0.0054120049 -0.005209032 5448193
-0.0034901146 0.0042144358 -0.0054060849 6040833
-0.00294731 0.0030168816 -0.0056031975 6371329
-0.0024045054 0.00181932 -0.0058003101 6764802
-0.0018616988 0.00062176399 -0.0059974226 6961666
-0.0075908769 0.013933674 -0.0071094665 2821889
-0.0064597093 0.013030313 -0.0053924951 3279361
-0.0059176963 0.011834471 -0.0055893096 3738113
-0.0053756684 0.010638621 -0.0057861242 4065793
-0.0048336554 0.0094427969 -0.0059829983 4395010
-0.0042916108 0.0082469396 -0.0061798128 4920324
-0.0034503713 0.0071870405 -0.0054214629 5511426
-0.0029075667 0.0059894864 -0.0056185159 5974785
-0.0023647603 0.0047919173 -0.0058156285 6502657
-0.0018219555 0.0035943631 -0.006012741 6830082
-0.001279151 0.0023968015 -0.0062098536 7159811
-0.00073634635 0.0011992473 -0.0064069661 7290116
-0.00019354177 1.6838312e-06 -0.0066040787 7420419
-0.007010825 0.015701078 -0.0073210034 2362369
-0.0064703487 0.014508676 -0.0075172815 1903361
-0.005335981 0.013606966 -0.0058014425 3083009
-0.0053894129 0.01212384 -0.0079097776 4262404
-0.0042519234 0.011215275 -0.0061950716 4720904
-0.0037099104 0.01001945 -0.0063919458 5248262
-0.0031678658 0.0088235941 -0.0065887603 5710340
-0.0023250021 0.0077645238 -0.0058309468 6171397
-0.0017822123 0.0065669678 -0.0060280594 6566918
-0.0012393928 0.0053693987 -0.006225172 6961158
-0.00069660309 0.0041718464 -0.0064222845 7223559
-0.00015379851 0.002974283 -0.0066193971 7552262
0.00099849713 0.0020331349 -0.0049100551 7615237
0.0015428403 0.00083214603 -0.0051077637 7681030
-0.0064307731 0.01746849 -0.0075325402 3151105
-0.0058902968 0.016276076 -0.0077288183 3152129
-0.0053498372 0.015083674 -0.0079250364 3153409
-0.004809361 0.01389125 -0.0081213145 4067585
-0.0042688847 0.012698837 -0.0083175926 4983304
-0.0037284251 0.011506421 -0.008513811 5378575
-0.0025861654 0.010596102 -0.0068008932 5839625
-0.0020441376 0.0094002467 -0.0069977078 6236676
-0.0015021077 0.0082043987 -0.0071945223 6697224
-0.00096007984 0.0070085637 -0.0073913368 6960140
-0.00041805013 0.0058127139 -0.0075881514 7288588
0.0004287661 0.004749326 -0.006831828 7616780
0.0015827102 0.0038132612 -0.0051230821 7944969
0.0021270681 0.0026122723 -0.0053207907 7812359
0.0026714262 0.0014112853 -0.0055184397 7745801
0.0035236906 0.00033588335 -0.0047640237 7811851
-0.0061478186 0.019082021 -0.0087000756 3280385
-0.0053102486 0.018043496 -0.0079402952 3544577
-0.0047697872 0.016851079 -0.0081365732 4004353
-0.0042293109 0.01565868 -0.0083328513 4462593
-0.0036888495 0.014466256 -0.0085290698 5052161
-0.0031483732 0.013273843 -0.0087253479 5710853
-0.0026078969 0.012081426 -0.008921626 6042120
-0.0014624203 0.011172757 -0.0072098407 6435343
-0.00092039246 0.0099769011 -0.0074066552 6828567
-0.00037836275 0.0087810513 -0.0076034698 7222798
0.00016366514 0.0075852182 -0.0078002843 7421446
0.0007056949 0.0063893683 -0.007997158 7682312
0.0015541167 0.0053268075 -0.0072413716 8008201
0.0020969212 0.0041292477 -0.0074384841 8336392
0.0032556541 0.0031914115 -0.0057314667 8075015
0.0041087512 0.0021185577 -0.0049773487 7877127
0.0046538841 0.00091584958 -0.0051752958 7942406
-0.0058111325 0.022195727 -0.0077592763 3349249
-0.0055685993 0.020846885 -0.0089113144 3342593
-0.0047301967 0.0198109 -0.008151832 3741185
-0.0041897353 0.018618494 -0.0083481101 4134913
-0.003649259 0.017426077 -0.0085443286 4528385
-0.0031087976 0.016233675 -0.0087406067 4986881
-0.0025683213 0.015041254 -0.0089368848 5513730
-0.002027845 0.013848837 -0.0091331033 6106370
-0.0014873835 0.012656422 -0.0093293814 6500098
-0.00033867537 0.011749417 -0.0076187882 6893846
0.00020335252 0.010553556 -0.0078156022 7157290
0.00074538041 0.0093577057 -0.0080124168 7486229
0.0012874083 0.0081618708 -0.0082092313 7617281
0.001829438 0.0069660228 -0.0084061055 7748356
0.0026794709 0.0059042908 -0.0076509151 7942919
0.0038398821 0.0049715359 -0.0059445533 8140039
0.0043842401 0.0037705507 -0.0061422023 8008712
0.0052389298 0.0026985258 -0.0053886804 7942917
0.0057840794 0.0014958158 -0.0055866274 8008450
0.0063292123 0.00029311515 -0.0057845744 8141825
-0.0055290833 0.023802459 -0.0089265136 2236931
-0.0049893837 0.022611756 -0.0091224937 2957825
-0.0044496991 0.02142106 -0.0093184737 3678209
-0.0039099976 0.020230368 -0.0095144538 4201985
-0.003370313 0.019039672 -0.0097104339 4725761
-0.0028306134 0.017848976 -0.009906414 5118465
-0.0022909287 0.016658273 -0.010102394 5513473
-0.0014478097 0.015616249 -0.0093446402 5975553
-0.00090733345 0.014423843 -0.0095409183 6500354
-0.00036685719 0.013231421 -0.0097371964 6895363
0.00078506779 0.012326071 -0.0080277352 7353888
0.0013270957 0.011130214 -0.0082245497 7555134
0.0018691235 0.0099343676 -0.0084213642 7813663
0.0027192142 0.0088768974 -0.0076662335 7812865
0.0032620188 0.0076793265 -0.0078633456 7878150
0.0044240952 0.006751664 -0.0061575803 7943436
0.0049684681 0.0055506751 -0.0063552293 8008972
0.0055128094 0.0043496862 -0.0065529379 8008716
0.0063691251 0.0032784846 -0.0057999524 8008716
0.0069142729 0.0020757765 -0.0059978995 8140043
0.0074594058 0.00087307394 -0.0061958465 8337943
-0.0052486528 0.025404111 -0.010093095 3675400
-0.004709743 0.024215121 -0.010288778 3282948
-0.0041708201 0.023026146 -0.01048446 3874817
-0.0036319103 0.021837156 -0.010680142 4465665
-0.0030929875 0.020648181 -0.010875884 4793601
-0.0025540777 0.019459207 -0.011071566 5187329
-0.0017117093 0.018423144 -0.010313633 5580801
-0.00086775783 0.017383676 -0.0095561771 5908993
-0.00032728157 0.016191255 -0.0097524552 6303233
0.00021319474 0.014998838 -0.0099486737 6697730
0.00075365428 0.013806421 -0.010144952 7025924
0.0012941157 0.012614025 -0.01034123 7420971
0.0024508405 0.011706868 -0.0086334972 7682898
0.0029928684 0.01051102 -0.0088303117 7944745
0.0035348982 0.0093151852 -0.0090271262 7878657
0.004387388 0.0082568098 -0.0082728891 7878153
0.0049301777 0.0070592538 -0.0084700016 7877905
0.0060970373 0.0061298069 -0.0067659649 7943441
0.0066413954 0.004928818 -0.0069636139 7812369
0.0074993167 0.0038584508 -0.0062112841 7746835
0.0080444664 0.0026557427 -0.0064092311 7681813
0.0092198346 0.0017074142 -0.004708353 7616814
0.0097665358 0.00050128065 -0.004906896 7160647
-0.004670281 0.02716643 -0.010303977 3675140
-0.0047321785 0.025649372 -0.012409273 4002056
-0.0035924483 0.024788469 -0.010695401 4331270
-0.0030535236 0.023599494 -0.010891082 4791813
-0.0031200945 0.022092719 -0.01299465 5252099
-0.0025827382 0.020907167 -0.013189795 5448961
-0.0014367829 0.020032555 -0.011478188 5711878
-0.00059280533 0.018997323 -0.010720792 6041099
-5.3105778e-05 0.017806619 -0.010916772 6368776
0.00079322804 0.016766258 -0.010160211 6630917
0.0013337043 0.015573837 -0.010356489 6893572
0.0018741806 0.014381427 -0.010552707 7156482
0.0030325558 0.013479378 -0.0088456301 7484954
0.0035745855 0.012283521 -0.0090424446 7748145
0.0041166134 0.011087673 -0.0092392592 8075802
0.0049699359 0.01003186 -0.00848532 7944962
0.0055127405 0.0088342987 -0.0086824326 7878928
0.0060555451 0.0076367371 -0.0088795451 7878686
0.0072256234 0.0067089442 -0.0071766409 7877907
0.0080843782 0.0056411251 -0.0064246091 7681801
0.0086295111 0.004438417 -0.0066225561 7485450
0.0091746598 0.0032357108 -0.0068205032 7223563
0.0097197928 0.0020330083 -0.0070184502 6962718
0.010899948 0.0010828953 -0.0053193602 6637618
-0.004155457 0.027406599 -0.012619558 4199941
-0.0036181007 0.026221059 -0.012814703 4527625
-0.0030807443 0.025035508 -0.013009789 4790025
-0.0025433879 0.023849957 -0.013204935 5183753
-0.0020060316 0.022664409 -0.013400081 5579781
-0.0014686602 0.021478862 -0.013595226 5776385
-0.00031948826 0.020605896 -0.011884753 6040075
0.00021942156 0.019416906 -0.012080493 6236949
0.0010657964 0.018380795 -0.011323991 6499343
0.0019137562 0.017341256 -0.010567966 6761738
0.0024542324 0.016148839 -0.010764244 7024133
0.0036142878 0.015251856 -0.009057763 7220993
0.0041563008 0.014056031 -0.0092545776 7418121
0.0046983305 0.012860175 -0.0094513921 7615505
0.0052403584 0.011664325 -0.0096482066 7878410
0.0060952883 0.010609349 -0.0088948635 7747844
0.0066380948 0.0094117802 -0.0090919761 7683096
0.0071808975 0.008214226 -0.0092890887 7747884
0.0083542084 0.0072880834 -0.0075873765 7746838
0.0088985497 0.0060870945 -0.0077850255 7420929
0.0097597055 0.0050183758 -0.0070338282 7029505
0.010304853 0.0038156696 -0.0072318348 6767361
0.010849972 0.0026129689 -0.0074297818 6505231
0.012033358 0.0016645193 -0.0057318243 6310430
0.012580059 0.00045838393 -0.0059303078 6114837
-0.0035787504 0.029163849 -0.012829843 4463363
-0.0030413792 0.027978294 -0.013024989 4790542
-0.0025040377 0.02679275 -0.013220134 5052441
-0.0019666664 0.025607198 -0.01341522 5314575
-0.00142931 0.024421651 -0.013610366 5575941
-0.00089195359 0.0232361 -0.013805511 5907459
-0.00035459726 0.022050552 -0.014000657 6104065
0.00018275912 0.020865005 -0.014195743 6368010
0.0013367144 0.019990254 -0.012487057 6498835
0.0021847002 0.018954962 -0.011731151 6695439
0.0027243998 0.017764274 -0.011927131 6892042
0.0035747439 0.016723838 -0.011171999 7154439
0.0047380328 0.01582852 -0.0094667105 7286019
0.0052800458 0.014632691 -0.009663525 7417606
0.0058220737 0.013436837 -0.0098603396 7549449
0.006677838 0.012384385 -0.0091072945 7682310
0.0072206417 0.011186831 -0.0093044071 7616514
0.0077634463 0.0099892616 -0.00950146 7551757
0.0083062509 0.0087917075 -0.0096985726 7617048
0.0094827786 0.0078672227 -0.0079981117 7683340
0.010027136 0.0066662338 -0.0081957607 7160065
0.0108899 0.0055983439 -0.0074451598 6636546
0.011435033 0.0043956339 -0.0076431069 6375171
-0.0030020308 0.030921083 -0.013040128 4328965
-0.0027683731 0.029565573 -0.014188829 4658949
-0.0019273161 0.028549984 -0.013430419 4987927
-0.0013899597 0.027364444 -0.013625565 5249577
-0.00085260335 0.026178889 -0.013820651 5576981
-0.00031523212 0.024993341 -0.014015797 5839105
0.00022212426 0.023807794 -0.014210942 6104321
0.00075947877 0.022622243 -0.014406088 6366465
0.0019151011 0.021752592 -0.012697998 6630665
0.0024540089 0.020563602 -0.01289368 6761234
0.0033036191 0.019529141 -0.012138369 6957582
0.0041547958 0.018491257 -0.011383536 7022859
0.0046952721 0.017298844 -0.011579814 7086600
0.0058617759 0.016405173 -0.009875658 7218182
0.0064037908 0.015209343 -0.010072473 7284484
0.0069458187 0.014013488 -0.010269287 7352066
0.0078031896 0.012961866 -0.009516838 7420929
0.0083459951 0.011764312 -0.009713891 7289601
0.0088887988 0.010566745 -0.0099110035 7224066
0.0094316034 0.0093691889 -0.010108116 7093764
0.010611365 0.0084463619 -0.0084087877 6963714
0.011155722 0.007245373 -0.0086064963 6571521
-0.0021924842 0.031320266 -0.014398816 4526083
-0.0016559045 0.030136436 -0.014593664 4854531
-0.00081323821 0.029121675 -0.01383585 5247756
-0.00027589677 0.027936134 -0.014030996 5510165
0.00026147449 0.026750576 -0.014226082 5839115
0.00079882902 0.025565032 -0.014421227 6102529
0.0013361854 0.024379484 -0.014616373 6365441
0.0018735417 0.023193933 -0.014811519 6629121
0.0030323956 0.02232594 -0.013104561 6892306
0.0035713054 0.021136951 -0.013300302 7090723
0.0044225231 0.020103309 -0.012545529 7284760
0.0052753091 0.019066256 -0.011791292 7153676
0.0058157854 0.017873839 -0.011987571 7086601
0.0069855209 0.016981825 -0.010284605 7152389
0.0075275339 0.015786 -0.01048142 7218948
0.0080695627 0.01459014 -0.010678235 7220228
0.0089285569 0.01353935 -0.0099263219 7223042
0.0094713476 0.012341794 -0.010123434 7027201
0.010014166 0.011144225 -0.010320547 6897153
0.010556957 0.0099466722 -0.01051766 6570754
-0.0010800305 0.03189113 -0.01480371 4919809
-0.00054344896 0.0307073 -0.014998498 5181953
-6.8693353e-06 0.029523473 -0.015193406 5509633
0.00052971032 0.028339636 -0.015388253 5707265
0.00106629 0.027155802 -0.015583102 5970433
0.0019129069 0.026136722 -0.014826658 6233345
0.0024502631 0.024951175 -0.015021804 6430209
0.0029876195 0.023765627 -0.015216949 6628609
0.0041496903 0.022899281 -0.013511184 6892059
0.0046886001 0.021710292 -0.013706867 7153717
0.0055414271 0.020677485 -0.012952748 7415585
0.0063958354 0.019641262 -0.012199107 7218446
0.0069363117 0.018448845 -0.012395325 6955785
0.008109265 0.017558478 -0.010693553 6890757
0.008651278 0.016362652 -0.010890367 6891269
0.0091933068 0.015166797 -0.011087182 6827782
0.0097353356 0.013970945 -0.011284056 6828803
0.010596701 0.012919277 -0.010532978 6635265
0.01113952 0.011721706 -0.010730091 6505729
0.011682309 0.010524154 -0.010927203 6178817
3.2425025e-05 0.03246199 -0.015208545 5378567
0.00056900468 0.031278163 -0.015403394 5575434
0.0011055825 0.030094333 -0.01559824 5772805
0.001642164 0.028910499 -0.015793089 5970177
0.0021787584 0.027726661 -0.015987936 6166786
0.0030269697 0.026708413 -0.015232089 6364164
0.0035643261 0.025522865 -0.015427235 6561540
0.0041016825 0.024337318 -0.01562238 6693636
0.0052669868 0.023472629 -0.013917807 6890514
0.0058058947 0.02228364 -0.014113489 7218720
0.0069758706 0.021408681 -0.012410584 7611157
0.0075163469 0.020216256 -0.012606862 7217419
0.0086909803 0.01933099 -0.010905686 6890503
0.0092330091 0.018135142 -0.0111025 6694659
0.009775023 0.016939312 -0.011299315 6564870
0.010317052 0.015743457 -0.011496189 6500874
0.010859081 0.014547609 -0.011693004 6503173
0.0016814714 0.031849034 -0.015808228 5707795
0.0022180527 0.030665204 -0.016003076 5904906
0.0027546324 0.02948137 -0.016197924 6035714
0.003291212 0.028297532 -0.016392771 6166788
0.0041410476 0.027280103 -0.015637521 6299399
0.004678404 0.02609456 -0.015832666 6433031
0.0058453567 0.025234953 -0.014128688 6562824
0.0063842814 0.024045978 -0.01432437 6692362
0.0072395485 0.023016531 -0.013571146 6888972
0.0080963979 0.021983683 -0.012818399 7151370
0.0086368732 0.020791262 -0.013014617 6890504
0.0098147253 0.019907642 -0.011314633 6629892
0.010356753 0.018711794 -0.011511448 6434305
0.010898767 0.017515969 -0.011708262 6304519
0.011440796 0.016320109 -0.011905137 6241038
0.011982824 0.015124261 -0.012101951 6177543
0.0027939267 0.032419898 -0.016213063 5905421
0.0033305064 0.031236067 -0.016407911 6036232
0.003867086 0.030052233 -0.016602758 6101508
0.0047177523 0.029037341 -0.015847806 6168072
0.0052551087 0.027851794 -0.016042951 6234636
0.0057924669 0.026666246 -0.016238097 6366995
0.0069626532 0.025808301 -0.014535311 6432282
0.0075015752 0.024619326 -0.014730994 6562834
0.0083584525 0.02359071 -0.013978305 6627849
0.0092169251 0.022558689 -0.013226154 6693639
0.010396441 0.021680139 -0.011526766 6565124
0.010938454 0.020484298 -0.011723581 6435332
0.011480483 0.019288447 -0.011920395 6240004
0.012022512 0.018092621 -0.01211721 6044933
0.01256454 0.016896766 -0.012314084 5980935
0.0047571026 0.031980131 -0.015863005 6102278
0.0052944589 0.030794591 -0.016058151 6232582
0.0058318153 0.029609036 -0.016253237 6365707
0.0070021283 0.028759602 -0.01455051 6300689
0.0075410381 0.027570613 -0.014746192 6301215
0.0083979852 0.026546273 -0.013993564 6301229
0.0089376699 0.025355581 -0.014189544 6301466
0.0097969761 0.024326086 -0.013437691 6366215
0.010978157 0.023452636 -0.011738899 6366980
0.011520186 0.022256792 -0.011935713 6305281
0.012062213 0.021060951 -0.012132528 6241796
0.012604227 0.019865103 -0.012329343 5980935
0.014116688 0.019127134 -0.0096870093 5720324
0.0064085219 0.031366281 -0.016463581 6363907
0.0069458932 0.030180726 -0.016658667 6562822
0.0081194239 0.029332951 -0.014957133 6366729
0.0086583318 0.028143961 -0.015152815 6236432
0.0095168883 0.027120441 -0.014400723 6171671
0.010377028 0.026093502 -0.013649168 6105615
0.011559873 0.025225136 -0.011951032 6103559
0.012101901 0.024029288 -0.012147847 6107396
0.01264393 0.022833448 -0.012344661 6045697
0.013185958 0.021637604 -0.012541475 6047490
0.013727972 0.020441756 -0.01273829 5721604
0.015245273 0.019706272 -0.010097745 5393922
0.0075225998 0.031937972 -0.016869012 6169089
0.0080599561 0.030752417 -0.017064098 6235649
0.0085973265 0.029566869 -0.017259244 6104833
0.0097756274 0.028717309 -0.015559437 6040833
0.010314536 0.027528334 -0.015755121 5909761
0.012141603 0.02699763 -0.012163165 5844228
0.012683617 0.0258018 -0.01235998 5911560
0.013225646 0.024605948 -0.012556794 6044677
0.013767675 0.023410108 -0.012753609 5981698
0.014309703 0.022214267 -0.012950423 5918465
0.0091740331 0.031324107 -0.017469529 5973510
0.0097113894 0.03013856 -0.017664675 5908481
0.010248746 0.028953012 -0.01785982 5845250
0.010786102 0.027767461 -0.018054966 5714436
0.013265348 0.027574282 -0.012572112 5586692
0.013807362 0.026378449 -0.012768927 5786628
0.01434939 0.025182605 -0.012965742 5983241
0.0099659655 0.031722713 -0.018821839 5584395
0.010502547 0.030538876 -0.019016687 5649666
0.011362825 0.029524703 -0.018265251 5715204
0.01190018 0.028339155 -0.018460397 5718023
0.011078421 0.032293584 -0.019226674 5194246
0.011615002 0.031109739 -0.019421522 5391873
-0.020011835 0.00045206025 0.010552344 4592398
-0.019855395 0.0015743729 0.0094590755 4722961
-0.019591849 0.0027474724 0.0093995901 4267029
-0.019328285 0.00392057 0.0093402239 3872779
-0.019064724 0.0050936695 0.0092807384 4265729
-0.018801164 0.0062667672 0.0092213722 4593425
-0.018857647 0.0002041962 0.010778127 4854535
-0.018594515 0.0013754405 0.01071876 4986377
-0.018435825 0.0024992153 0.0096258493 4725259
-0.018068224 0.0037179254 0.010600147 4528646
-0.017805092 0.0048891678 0.010540781 4659714
-0.017645143 0.0060185101 0.0094475122 4790283
-0.017278802 0.0072316546 0.010422048 4396820
-0.017015669 0.0084028952 0.010362682 4069644
-0.017496511 5.9487298e-05 0.013070044 4988673
-0.017440327 0.0011275765 0.010944662 5055489
-0.017279834 0.002250962 0.0098521085 4921857
-0.016914036 0.0034700613 0.010825929 4790786
-0.016650904 0.0046413038 0.010766682 5051395
-0.016489148 0.0057702567 0.0096737714 5312261
-0.016225602 0.00694336 0.009614286 4919815
-0.015962042 0.0081164595 0.0095549198 4527364
-0.015698478 0.009289559 0.0094954344 4659458
-0.015434917 0.010462658 0.0094359489 4790529
-0.015171371 0.011635756 0.0093765827 4920577
-0.014907811 0.012808856 0.0093170973 4988929
-0.016083702 0.0009799432 0.013236103 5184513
-0.016023021 0.0020509586 0.011111197 5118466
-0.015759874 0.003222201 0.011051831 5052162
-0.015496746 0.0043934435 0.010992465 5443074
-0.015333142 0.0055220015 0.0099000307 5836291
-0.014970452 0.0067359321 0.010873851 5443077
-0.014806032 0.0078682024 0.0097810598 5052164
-0.014542472 0.0090413019 0.0097216936 5052418
-0.014376804 0.010179142 0.0086287828 5052162
-0.014112826 0.011354094 0.0085691782 5051906
-0.013945907 0.012497498 0.0074760285 5054721
-0.013681512 0.013674311 0.0074164239 4925185
-0.014933165 0.00073286332 0.01346117 5577218
-0.014868833 0.0018030964 0.011337099 5445636
-0.014605686 0.0029743388 0.011277732 5379074
-0.014342558 0.0041455831 0.011218366 5574913
-0.014177136 0.0052737482 0.010126171 5771778
-0.013913587 0.0064468496 0.010066804 5510660
-0.013650026 0.0076199491 0.010007319 5249539
-0.013386466 0.0087930486 0.0099479528 5249539
-0.013218965 0.0099304914 0.0088553997 5316611
-0.012954988 0.011105444 0.008795795 5316867
-0.012786247 0.012248458 0.007703003 5317122
-0.012521856 0.013425272 0.0076432792 5252097
-0.012257461 0.01460208 0.0075836745 5253377
-0.011993069 0.015778892 0.0075240699 5251329
-0.011728674 0.016955703 0.0074644652 5251589
-0.010688677 0.023936294 0.000900921 4989458
-0.010421775 0.025124244 0.00084072031 4990751
-0.010064676 0.026321854 0.0018150179 4992027
-0.0097982064 0.027507946 0.0017549364 5059351
-0.0096210986 0.028688088 0.00066011824 5192460
-0.0093542114 0.029876038 0.00059991755 5261314
-0.0090873092 0.031063985 0.00053983607 5330177
-0.008820422 0.032251932 0.00047963538 5067009
-0.013782658 0.00048579089 0.013686356 5969670
-0.013520345 0.001653323 0.013627228 5838602
-0.013451512 0.0027264785 0.011503634 5707018
-0.013188381 0.0038977228 0.011444268 5705738
-0.013021111 0.0050254911 0.01035243 5707026
-0.012757566 0.0061985925 0.010293064 5577242
-0.012494005 0.007371692 0.010233577 5511953
-0.012325104 0.0085068904 0.009141502 5512200
-0.012061141 0.0096818451 0.0090818973 5579538
-0.011797164 0.010856798 0.0090224119 5580061
-0.01162659 0.011999417 0.0079298588 5579535
-0.011362195 0.013176233 0.0078702541 5579009
-0.011097804 0.014353041 0.007810649 5644545
-0.010925561 0.015503086 0.0067177382 5579265
-0.010569017 0.016706668 0.0076914397 5578757
-0.010304626 0.017883476 0.0076317159 5316106
-0.009961769 0.021326482 0.0022842255 5053442
-0.0097849257 0.022496946 0.001190242 4920835
-0.0095180385 0.023684893 0.0011300413 4853770
-0.0091623403 0.024884764 0.0021038619 4721426
-0.0089842454 0.026060794 0.0010096399 4662799
-0.0086293966 0.027256943 0.0019836989 4595468
-0.008450456 0.028436683 0.00088923849 4593161
-0.0081835687 0.029624637 0.0008290378 4197639
-0.0079166666 0.030812588 0.00076883711 3870468
-0.0076497793 0.032000534 0.00070863642 3871233
-0.012536399 0.00028999895 0.01494318 6165770
-0.012369823 0.0014062468 0.013852295 6166289
-0.012297325 0.0024786144 0.011729416 6167314
-0.012034193 0.0036498588 0.01167005 6036755
-0.01186512 0.0047772378 0.010578689 5972002
-0.011601575 0.0059503391 0.010519204 5906993
-0.011338014 0.0071234386 0.010459838 5907487
-0.01107445 0.0082965381 0.010400352 5907726
-0.010903299 0.0094331987 0.0093085142 5908258
-0.010639321 0.010608152 0.0092490287 5908535
-0.010466918 0.011750374 0.0081568332 5908764
-0.010202523 0.012927189 0.0080972286 5908993
-0.009938132 0.014103997 0.0080376239 5975041
-0.0097640529 0.015253648 0.0069450703 5974529
-0.0094992444 0.016432315 0.0068853465 5974278
-0.0092344359 0.017610986 0.0068256226 5710092
-0.0090586953 0.018768068 0.0057325927 5444871
-0.008970771 0.019909121 0.0036063758 5446403
-0.0087047145 0.021093354 0.0035462943 5380866
-0.0085264742 0.022261571 0.0024527875 5248769
-0.0082600024 0.023447663 0.002392706 5117187
-0.0079935156 0.024633754 0.0023326245 5051909
-0.0077270437 0.025819849 0.002272543 4989187
-0.0074605718 0.027005937 0.0022124615 5054465
-0.007194085 0.028192028 0.0021522609 5117190
-0.007012926 0.029373236 0.0010581581 4854028
-0.0067460239 0.030561183 0.00099795742 4590855
-0.0064791366 0.031749129 0.00093775667 4460802
-0.011387724 4.3319538e-05 0.015168008 6428680
-0.0112193 0.0011591669 0.014077482 6494217
-0.011143167 0.002230756 0.011955318 6627337
-0.010880034 0.0034020003 0.011895952 6432778
-0.010616887 0.0045732427 0.011836586 6301457
-0.010445569 0.0057020858 0.010745463 6301209
-0.010182004 0.0068751853 0.010685978 6300688
-0.0099184439 0.0080482848 0.010626612 6300167
-0.0096548833 0.0092213843 0.010567126 6301457
-0.0093913376 0.010394486 0.01050764 6236956
-0.0092175193 0.01153446 0.009416041 6237198
-0.0090428665 0.012678152 0.0083242031 6302977
-0.0087784715 0.013854962 0.0082644792 6368514
-0.0085140783 0.015031774 0.0082048746 6366979
-0.0083377529 0.016182881 0.0071125594 6366470
-0.0080729444 0.017361552 0.0070528355 6104074
-0.0078953728 0.018518239 0.0059602824 5906438
-0.007630147 0.019698765 0.0059004393 5839874
-0.0075377394 0.020842742 0.0037746993 5773825
-0.0072716847 0.022026982 0.003714737 5576705
-0.0070056282 0.023211215 0.0036546555 5445378
-0.0067395568 0.024395458 0.0035946933 5379844
-0.0064735003 0.025579691 0.0035346118 5382403
-0.0062074438 0.026763927 0.0034746495 5513730
-0.0059413742 0.027948163 0.0034146872 5643012
-0.0057588033 0.029127121 0.002320942 5445383
-0.0054923333 0.030313209 0.0022608605 5313540
-0.0053085107 0.031497743 0.001166877 4985089
-0.010068793 0.00091209076 0.014302668 6694913
-0.0098064914 0.002079621 0.01424354 6827265
-0.0097258464 0.0031541362 0.012121853 6630401
-0.0094626993 0.0043253805 0.012062487 6499329
-0.009289559 0.0054538324 0.010971722 6499073
-0.0090259984 0.006626932 0.010912237 6499073
-0.0087624379 0.0078000333 0.010852751 6498561
-0.0084988754 0.0089731328 0.010793385 6498305
-0.0082353298 0.010146232 0.0107339 6499329
-0.0080596656 0.01128581 0.0096426578 6500353
-0.0077956878 0.012460768 0.0095830532 6565633
-0.0076188128 0.013605922 0.0084914537 6696707
-0.0073544197 0.01478273 0.0084318491 6696710
-0.0071762614 0.015933454 0.0073398915 6631175
-0.0069114529 0.017112125 0.0072801677 6433032
-0.0066466443 0.018290788 0.0072204438 6234628
-0.0064668227 0.01944894 0.0061281291 6171649
-0.0062015988 0.020629462 0.006068286 6043137
-0.0061046928 0.021776374 0.0039430228 5906945
-0.0056711491 0.02299051 0.0059487191 5840386
-0.0055725649 0.024144847 0.0038230983 5775108
-0.0053065121 0.025329079 0.0037630168 5775619
-0.0050404556 0.026513316 0.0037030545 5775875
-0.0047743842 0.027697552 0.003642973 5840898
-0.0045899972 0.028876118 0.0025497046 5775106
-0.0043235254 0.030062206 0.0024896231 5709313
-0.0041378681 0.031246345 0.0013959972 5380353
-0.0038709659 0.032434292 0.0013357966 5116929
-0.0089182854 0.00066501647 0.014527855 6826753
-0.0088348016 0.0017350297 0.012407002 7089409
-0.0085716713 0.0029062722 0.012347755 6893569
-0.0083085261 0.0040775165 0.012288389 6696707
-0.008133553 0.0052055772 0.011197862 6696710
-0.0078699924 0.0063786767 0.011138496 6696708
-0.00760643 0.0075517744 0.011079011 6697731
-0.0073428694 0.0087248757 0.011019525 6696962
-0.0070793219 0.0098979753 0.010960159 6696450
-0.0068157595 0.011071073 0.010900673 6763019
-0.0066378769 0.012212126 0.00980967 6894869
-0.0063738991 0.013387082 0.0097500654 7091980
-0.006194748 0.014533691 0.0086588236 7026947
-0.0059303548 0.015710507 0.0085990997 6959876
-0.0057499614 0.01686269 0.0075074998 6762245
-0.0054851547 0.018041357 0.0074477759 6631427
-0.0053035002 0.019199114 0.0063558188 6500865
-0.0050382745 0.020379633 0.0062959758 6369025
-0.0047730505 0.021560159 0.0062361327 6302978
-0.0045078266 0.022740684 0.0061762896 6234626
-0.0044055916 0.023894232 0.0040513841 6168067
-0.0041395351 0.025078464 0.0039914218 6168580
-0.0038734786 0.026262701 0.0039314595 6103557
-0.0036074072 0.027446941 0.003871378 6038787
-0.0033413526 0.028631177 0.0038114158 6039809
-0.0031547155 0.029811203 0.0027182666 6103809
-0.0028882287 0.030997299 0.0026581851 5840385
-0.0026217569 0.03218339 0.0025981036 5577729
-0.0077677611 0.00041794032 0.014752922 6761985
-0.0076806135 0.0014871657 0.012632904 6893057
-0.0074174833 0.00265841 0.012573537 6762753
-0.0071543381 0.0038296543 0.012514171 6632198
-0.006977547 0.0049573202 0.011424121 6631435
-0.0067139845 0.0061304197 0.011364636 6631176
-0.006450424 0.0073035173 0.01130527 6697990
-0.0061868615 0.0084766187 0.011245784 6764036
-0.005923314 0.0096497182 0.011186418 6829315
-0.0056597535 0.010822816 0.011126933 6894870
-0.005480025 0.011963475 0.010036287 7223082
-0.0052160472 0.013138432 0.0099766823 7551253
-0.0050350912 0.014284652 0.0088856788 7354369
-0.004770698 0.015461463 0.0088260742 7157506
-0.0045884717 0.016613256 0.0077347127 6958851
-0.0043236632 0.017791923 0.0076749888 6828034
-0.0040588547 0.018970594 0.0076153842 6631681
-0.0038749501 0.020129807 0.0065236655 6499330
-0.0036097262 0.021310333 0.0064638224 6564612
-0.0033445004 0.022490855 0.0064039794 6629123
-0.0030792765 0.023671381 0.0063441363 6498306
-0.0029725432 0.024827853 0.0042198268 6367492
-0.0027064886 0.026012093 0.0041597453 6302471
-0.0024404172 0.027196325 0.004099783 6237700
-0.0021743607 0.028380558 0.0040398207 6434049
-0.0019083041 0.029564794 0.0039797393 6630401
-0.0017194188 0.030746292 0.0028869477 6235393
-0.0014529469 0.031932384 0.0028268662 5777409
-0.0066172387 0.00017086416 0.014978108 6763011
-0.0065264553 0.0012393054 0.012858805 6697474
-0.006263325 0.0024105497 0.012799439 6631938
-0.0060001779 0.003581794 0.012740073 6631685
-0.0058215391 0.0047090631 0.011650381 6566153
-0.0055579785 0.0058821626 0.011590895 6566150
-0.005294418 0.0070552602 0.011531529 6698500
-0.0051141307 0.0081899613 0.010441478 6895107
-0.0048501529 0.0093649179 0.010381875 6960387
-0.0045861769 0.010539873 0.010322389 7091471
-0.004404204 0.011681993 0.0092319818 7551259
-0.0041398108 0.012858804 0.009172258 8009233
-0.0038754176 0.014035612 0.0091126533 7680519
-0.0036917739 0.015185151 0.0080217691 7352326
-0.0034269653 0.016363822 0.0079620453 7155462
-0.0032420754 0.017518938 0.0068709222 7024644
-0.0031358637 0.018656064 0.0047481623 6828290
-0.0028698072 0.019840296 0.0046882001 6696707
-0.0026037507 0.021024536 0.0046281186 6826243
-0.002337696 0.022208769 0.0045681563 7022850
-0.0020716246 0.023393009 0.004508194 6760961
-0.001805568 0.024577241 0.0044481126 6564612
-0.0016165281 0.02575092 0.0033560363 6499591
-0.0013500414 0.026937012 0.0032959548 6434053
-0.0010835695 0.028123103 0.0032358733 6827010
-0.00081709761 0.029309195 0.0031757918 7218945
-0.00055061083 0.03049529 0.0031157103 6627841
-0.00028413898 0.031681381 0.0030555096 6039809
-0.005372284 0.0009914469 0.013084707 6763268
-0.0051091518 0.0021626893 0.013025341 6762499
-0.0048460066 0.0033339337 0.012965974 6762245
-0.0045828614 0.0045051761 0.012906608 6762759
-0.0043197293 0.0056764185 0.012847242 6763268
-0.0041384269 0.0068070106 0.011757669 6829058
-0.00395629 0.0079413112 0.010667977 6960643
-0.003692314 0.0091162678 0.010608491 7025412
-0.0034283362 0.010291222 0.010548887 7090440
-0.0032445453 0.011432953 0.0094588371 7352844
-0.0029801521 0.012609763 0.0093992325 7615501
-0.0027951058 0.013757054 0.0083088251 7418382
-0.0025302973 0.014935721 0.0082491012 7285515
-0.0022654887 0.016114388 0.0081893774 7155209
-0.002078766 0.017269116 0.0070986119 7023878
-0.0019688867 0.018405452 0.0049765673 6893828
-0.0017028319 0.019589685 0.0049166051 6763267
-0.0014367754 0.020773925 0.0048565236 6762755
-0.0011707189 0.021958157 0.0047965613 6827778
-0.00090464752 0.023142401 0.004736599 6696961
-0.00063859101 0.024326634 0.0046765176 6566148
-0.00044771834 0.025499918 0.0035847989 6500104
-0.00018123155 0.026686009 0.0035247174 6368518
0.00015959154 0.027879339 0.0044965115 6630148
0.00042564803 0.029063575 0.0044365493 6824706
0.000618199 0.030244283 0.0033443538 6497793
0.00088466902 0.031430375 0.0032842723 6105602
-0.0042180941 0.00074358284 0.013310489 6894598
-0.0039549638 0.0019148272 0.013251123 6893058
-0.0036918186 0.0030860715 0.013191876 6892804
-0.0035095271 0.0042125583 0.01210278 6892551
-0.0032459665 0.0053856559 0.012043414 6958344
-0.0029824041 0.0065587536 0.011983927 7024138
-0.0027984511 0.0076926649 0.010894594 7090697
-0.0025344733 0.0088676196 0.010835108 7090184
-0.0022704955 0.010042576 0.010775504 7090440
-0.0020848867 0.011183908 0.0096858116 7155207
-0.0018204934 0.01236072 0.0096262069 7288081
-0.0016336142 0.013507621 0.0085361572 7222044
-0.0014459043 0.014658235 0.0074458686 7221781
-0.0011806804 0.015838757 0.0073860255 7155983
-0.001067968 0.016970605 0.0052649346 7090446
-0.00080189656 0.018154841 0.0052049723 6959373
-0.00053584005 0.019339077 0.0051448909 6893325
-0.00034481092 0.020504542 0.0040538874 6761998
-3.7270529e-06 0.02170755 0.0050249663 6631433
0.00026234248 0.022891786 0.0049648848 6631941
0.00045461961 0.02406282 0.003873643 6631957
0.00072108966 0.025248911 0.0038135615 6501157
0.00098757644 0.026435006 0.00375348 6368536
0.0012540483 0.027621098 0.0036932793 6433546
0.0015205202 0.028807189 0.0036331979 6499080
0.0017153268 0.029989362 0.00254136 6368262
0.0020534787 0.031179372 0.0035130349 6236426
0.0022491179 0.032365255 0.0024209586 6433294
-0.0030639209 0.00049572252 0.013536391 6764039
-0.0028007906 0.0016669668 0.013477025 6958337
-0.0025376435 0.0028382111 0.013417658 7218692
-0.002353536 0.0039643049 0.012329039 7088135
-0.0020899735 0.0051374026 0.012269554 7024396
-0.0019045881 0.0062690638 0.011180696 7024658
-0.0017183925 0.0074044354 0.0100916 7091215
-0.0014539993 0.0085812453 0.010031995 7090445
-0.0011896061 0.0097580571 0.0099723907 7090440
-0.0010017267 0.010900851 0.0088828178 7155715
-0.00081302959 0.012047362 0.0077931252 7223062
-0.00054780382 0.013227886 0.0077334014 7157546
-0.00043310403 0.014351521 0.0056133834 7157791
-0.0001670475 0.015535757 0.0055533019 6959125
9.9009005e-05 0.016719993 0.0054933396 6824982
0.0003650804 0.017904229 0.0054332581 7022359
0.0005575252 0.019067444 0.0043427316 7154200
0.00082399521 0.020253539 0.0042826501 6892057
0.0010904671 0.021439631 0.0042225686 6629905
0.0013569539 0.022625726 0.0041624871 6696969
0.0015514867 0.023798224 0.0030714837 6828582
0.0018898976 0.024997909 0.0040422049 6434883
0.0020852778 0.026174117 0.0029510823 6041130
0.0023521651 0.027362064 0.0028908816 6106385
0.002689328 0.028556187 0.0038619605 6237454
0.0028859545 0.029737964 0.0027704802 6171660
0.0031528585 0.030925911 0.0027102795 6105363
0.0034197457 0.032113858 0.0026500789 6236954
-0.0019097476 0.00024786033 0.013762292 6632977
-0.0017246212 0.0013698488 0.01267415 7089410
-0.0014610606 0.0025429465 0.012614665 7547140
-0.001274703 0.003670508 0.011526403 7283973
-0.0010107252 0.0048454627 0.011466798 7090451
-0.00074674736 0.0060204174 0.011407313 7090720
-0.00055873382 0.007155396 0.010318574 7156245
-0.00036985232 0.008294085 0.0092295976 7156235
-0.00010504377 0.0094727501 0.0091698738 7156230
8.5085732e-05 0.010617012 0.0080806585 7156226
0.00035030962 0.011797534 0.0080208154 7223308
0.00046780155 0.012916675 0.0059017506 7157270
0.00066041772 0.014072072 0.0048119393 7091473
0.00092690263 0.015258163 0.0047517386 6827788
0.0011933745 0.016444255 0.0046916571 6630427
0.0014598464 0.017630346 0.0046315757 7022890
0.0016545487 0.018795028 0.0035412875 7481632
0.0019214508 0.019982979 0.0034810868 7088407
0.0021883398 0.021170925 0.0034208861 6695438
0.002455242 0.022358879 0.0033606854 6827782
0.0026520379 0.023532834 0.0022700396 7024404
0.0029890165 0.024734773 0.003240284 6369058
0.0031866599 0.025912445 0.002149519 5713431
0.0035228077 0.02711067 0.0031200019 5844236
0.0037897099 0.02829862 0.0030598012 5975049
0.0040565971 0.029486567 0.0029996005 5975046
0.0043234993 0.030674513 0.0029393998 5975050
0.0045232214 0.031861462 0.0018480389 6106381
-0.00075557258 0 0.013988075 6895130
-0.00056863006 0.0011215992 0.01290041 7156740
-0.00030506766 0.0022946969 0.012840924 7418372
-0.00011687716 0.0034218617 0.011752901 7287556
0.00014710064 0.0045968145 0.011693415 7156761
0.00033654654 0.005729543 0.010605154 7222319
0.00052681577 0.0068659876 0.0095166536 7288092
0.00079162244 0.0080446545 0.0094569298 7287817
0.00098316942 0.0091866646 0.0083680721 7222277
0.0012483933 0.01036719 0.0083083482 7222785
0.0013687202 0.011481825 0.0061901179 7223554
0.0015627538 0.012634972 0.0051006642 7222275
0.0018292257 0.013821065 0.0050405827 7287299
0.0020245127 0.01497978 0.0039510098 6958596
0.0022914018 0.016167734 0.0038908091 6630689
0.002558304 0.01735568 0.0038306084 6827326
0.0027552545 0.018521823 0.0027406779 7089705
0.003022559 0.019711625 0.002680358 6826261
0.0033589825 0.020919528 0.0036500064 6629900
0.0036258847 0.022107475 0.0035898057 6630148
0.0038244985 0.023281045 0.0024995175 6630402
0.0041596591 0.024483375 0.0034694043 6237441
0.0043591205 0.025660653 0.0023788777 5844484
0.0046934504 0.026859269 0.0033490029 5910279
0.0049603526 0.028047215 0.0032888022 6041860
0.0052272398 0.029235162 0.0032286015 6041089
0.005494142 0.030423116 0.0031685201 6041089
0.005695682 0.031609673 0.0020775166 6171649
0.00066174578 0.00092338026 0.01415461 7223042
0.00085093651 0.0020464417 0.013067183 7288322
0.0010409766 0.0031732116 0.011979518 7288322
0.0013049544 0.0043481644 0.011920032 7288078
0.0014962015 0.0054805037 0.010832128 7353627
0.0016883203 0.0066165533 0.0097439857 7484688
0.0019531287 0.0077952221 0.0096842619 7419141
0.0021464787 0.0089368429 0.0085957618 7353614
0.0022696387 0.010046981 0.0064784852 7289110
0.0025356952 0.011231216 0.0064184037 7223308
0.0026613809 0.012352487 0.0043004123 7353090
0.0029282831 0.013540436 0.0042402116 7548930
0.0031951703 0.014728386 0.0041801301 7089666
0.0033931099 0.015890419 0.0030906764 6696465
0.0036604125 0.017080221 0.0030303565 6696479
0.00392773 0.018270031 0.0029700366 6695958
0.0041950345 0.019459832 0.0029098359 6629900
0.004462352 0.020649638 0.002849516 6629895
0.0047296565 0.021839444 0.0027891961 6433538
0.0049305335 0.023014478 0.0016991465 6236929
0.0052642785 0.024219051 0.0026686755 6106113
0.0054659881 0.0253978 0.0015783875 5975562
0.005733721 0.026589457 0.0015179483 6041620
0.0060014408 0.027781118 0.0014576284 6107146
0.0063335355 0.02897827 0.0024275151 6106881
0.00660084 0.030168071 0.0023671952 6106369
0.0068681575 0.031357884 0.0023068753 6237185
0.001743382 0.00062508695 0.013352809 7288833
0.0019348097 0.0017496105 0.01226562 7353601
0.0021270886 0.0028778408 0.011178312 7287041
0.0023914818 0.0040546525 0.011118707 7286276
0.0025850032 0.0051884521 0.010030922 7483143
0.0028498117 0.0063671209 0.0099711986 7680004
0.0030445792 0.0075064935 0.0088832946 7484674
0.0031705592 0.0086121336 0.0067668525 7288599
0.0034366157 0.0097963717 0.0067068902 7157548
0.0036338996 0.010946874 0.005618271 7026710
0.0037636291 0.012069218 0.0035009948 6959361
0.0040309485 0.013259025 0.0034406749 6957825
0.0042982511 0.014448825 0.003380355 6695169
0.0045655705 0.015638635 0.0033201543 6432513
0.0047661886 0.016803991 0.0022308198 6432257
0.0050339215 0.017995652 0.0021704999 6432002
0.0053016413 0.019187316 0.0021100608 6432004
0.0055693742 0.020378973 0.0020497409 6432258
0.0059021171 0.021587655 0.003018674 6301441
0.0061048288 0.022762299 0.001928982 6170625
0.0063725617 0.023953959 0.0018685429 6039297
0.006512709 0.025122702 -0.00025111757 5908241
0.0069080163 0.026337273 0.0017477839 5909794
0.0071757333 0.027528942 0.001687464 5976593
0.0074434681 0.028720599 0.0016270248 5975553
0.0077112019 0.029912259 0.0015667049 6040833
0.0080406172 0.031106092 0.0025363532 6171649
0.0082466537 0.032295581 0.0014459459 6367746
0.0028994046 0.00037682988 0.013579068 7420417
0.0030926634 0.0015009604 0.012492237 7483649
0.0032867324 0.0026288014 0.011405167 7351809
0.0035511255 0.0038056131 0.011345563 7286022
0.0037464947 0.0049390178 0.010258255 7549196
0.0039426945 0.0060761422 0.0091707082 7877127
0.0040714946 0.007177284 0.0070552197 7550466
0.0042697508 0.0083236881 0.0059671965 7222800
0.0045362227 0.0095097814 0.0059071151 7026463
0.0047357623 0.010661745 0.0048188535 6830866
0.0048695747 0.011785166 0.0027021733 6565638
0.0051372945 0.012976825 0.0026418534 6366982
0.0054050274 0.014168486 0.0025814143 6298119
0.0056727473 0.015360147 0.0025210944 6232836
0.005940482 0.016551808 0.0024606553 6167553
0.006079305 0.017697502 0.00034278311 6169091
0.0064759348 0.018935133 0.0023398963 6234630
0.0067436695 0.02012679 0.0022795764 6299908
0.0070113875 0.021318451 0.0022191373 6168835
0.0072791213 0.022510115 0.0021588174 6105090
0.0075468551 0.023701776 0.0020983783 5973505
0.0076906672 0.02486974 -2.0686013e-05 5908234
0.0080823088 0.026085094 0.0019776192 5843476
0.0083500277 0.027276758 0.0019171803 5843979
0.0086177606 0.028468415 0.0018568604 5910017
0.0088854944 0.029660076 0.0017964212 5975297
0.0091532143 0.03085174 0.0017361013 6171905
0.0094209481 0.032043397 0.0016756622 6367758
0.0040553957 0.00012857653 0.013805327 7289601
0.0041820426 0.0012029428 0.011691747 7351809
0.0043783672 0.0023322515 0.010605034 7155201
0.0046431776 0.0035109166 0.010545311 6958089
0.0047063436 0.0045582019 0.0074035493 7221778
0.0049724001 0.0057424381 0.007343587 7549962
0.0052384697 0.0069266744 0.0072836247 7288578
0.0054385606 0.0080726817 0.0061959592 7027466
0.0057050325 0.0092587732 0.0061358777 6765586
0.0059064049 0.010410352 0.0050479737 6569487
0.0060438681 0.011532987 0.0029320088 6434828
0.006311588 0.012724645 0.0028715697 6365964
0.0065793227 0.013916306 0.0028112498 6233869
0.0068470407 0.015107967 0.0027508107 6167559
0.0069886837 0.016249161 0.0006338922 6036993
0.0072572492 0.017444529 0.00057333388 5906437
0.0076502273 0.018682953 0.0025697318 6038537
0.007917962 0.01987461 0.0025092927 6236423
0.0082470672 0.021084078 0.0034775105 6105093
0.0084534148 0.022257935 0.0023885337 5974019
0.0087211486 0.023449592 0.0023282138 5908225
0.0089888675 0.024641257 0.0022677747 5842692
0.0092566013 0.025832918 0.0022074548 5778183
0.0095243203 0.027024575 0.0021470156 5778436
0.0097920541 0.028216235 0.0020866957 5712898
0.01011825 0.029412709 0.0030555096 5581825
0.010385567 0.030602511 0.002995309 5843713
0.010652871 0.03179232 0.0029349891 6105625
0.0053417012 0.00095390715 0.011918721 7222790
0.0055398587 0.0020828173 0.010832247 6959105
0.0057388786 0.0032154415 0.0097456547 6697478
0.0058733188 0.0043075886 0.0076319543 6960138
0.0061393753 0.0054918248 0.007571992 7222790
0.0063408818 0.0066355802 0.0064848033 7026689
0.0065432582 0.0077830553 0.0053973761 6831625
0.0068101455 0.0089710038 0.0053371754 6571281
0.0070137372 0.010124046 0.0042496291 6375436
0.0070923967 0.011214698 0.0011066763 6376198
0.0073609622 0.012410071 0.001046118 6375943
0.0076295128 0.013605444 0.00098555966 6244615
0.0078980783 0.014800817 0.00092500128 6179076
0.0081666438 0.015996188 0.00086444296 5916929
0.0084352093 0.017191559 0.00080388464 5717507
0.0088245347 0.018430769 0.0027995673 5911557
0.0090922695 0.019622426 0.0027391282 6173444
0.0093599884 0.020814087 0.0026788083 6042115
0.0096277231 0.022005752 0.0026183692 5909508
0.009895457 0.023197409 0.0025579301 5842694
0.010163176 0.024389073 0.0024976102 5777926
0.010315138 0.025559176 0.0003798572 5778694
0.010813562 0.026790231 0.0044342843 5778693
0.01108045 0.027978178 0.0043740836 5513732
0.011347353 0.029166128 0.0043138829 5254402
0.011614241 0.030354075 0.0042536822 5515009
0.011825331 0.031540528 0.0031644669 5842197
0.0065013599 0.00070487149 0.012145694 7355659
0.0065081976 0.0016885027 0.0079804035 7090434
0.0067742541 0.002872739 0.007920322 6889986
0.0070403097 0.0040569752 0.0078603597 6961155
0.0073063662 0.0052412096 0.007800397 7093506
0.0075096907 0.0063845776 0.0067134467 6898689
0.0077761775 0.0075706709 0.0066533652 6704137
0.0079807723 0.0087196063 0.0055662957 6508305
0.0082476744 0.009907553 0.005506095 6377993
0.0085145617 0.011095503 0.0054458943 6312961
0.0085389223 0.012157101 0.0012766687 6313729
0.008807472 0.013352474 0.0012161104 6182146
0.0090760374 0.014547847 0.0011554329 6116097
0.0093446029 0.015743218 0.0010948746 6050305
0.0075980332 0.00040528551 0.011346635 7486743
0.0076751886 0.0014378931 0.0082086893 7287560
0.007879084 0.0025752932 0.007122573 7091977
0.0081455708 0.0037613884 0.0070624915 7027722
0.0084120417 0.004947478 0.0070022908 6964229
0.0086176088 0.0060923155 0.0059158173 6770177
0.008884511 0.0072802659 0.0058556166 6574341
0.0091513991 0.0084682126 0.005795416 6509577
0.0094183013 0.0096561611 0.0057352153 6443781
0.0096851885 0.01084411 0.0056750146 6313729
0.0086983871 0.00010491908 0.010548291 7421475
0.008781421 0.0011381991 0.0074114171 7224335
0.0090478929 0.0023242906 0.0073512164 7092752
0.0093143806 0.0035103839 0.0072911349 6898193
0.0095808515 0.0046964753 0.0072310534 6769417
0.0097882506 0.0058409199 0.0061448184 6639617
0.010055153 0.0070288684 0.0060846177 6509825
0.0099502299 0.00088719465 0.0076400605 7223560
0.010216702 0.002073288 0.007579979 7094024
0.010483189 0.0032593813 0.0075198975 6834185
0.01074966 0.0044454709 0.0074598161 6573829
0.01111904 0.00063618831 0.0078688236 7291905
0.011328858 0.0017742775 0.006783661 7161089
0.011595746 0.002962226 0.0067234603 6834689
0.011918469 0.0041944664 0.0076885787 6574849
0.012287848 0.0003851857 0.0080975862 7422995
0.01255432 0.0015712809 0.0080375047 7292428
0.012820806 0.0027573723 0.007977304 6900741
0.013403255 8.3534047e-05 0.007301983 7489061
0.013670142 0.0012714844 0.0072417823 7620631
0.01393703 0.0024594329 0.0071815816 7097353
0.014883388 0.00013839826 0.013674674 7555347
0.014840784 0.0010200851 0.0074709025 8013580
0.015107672 0.0022080373 0.0074107018 7359749
0.017514637 0.00086710416 0.01509219 7620869
0.018672463 0.00061845779 0.015318689 7425034
0.019830301 0.00036980771 0.015545306 7293721
