# .PCD v0.7 - Point Cloud Data file format
VERSION 0.7
FIELDS x y z rgba
SIZE 4 4 4 4
TYPE F F F U
COUNT 1 1 1 1
WIDTH 436
HEIGHT 1
VIEWPOINT 0 0 0 1 0 0 0
POINTS 436
DATA ascii
-0.0081863087 0.0025453269 -0.0070829862 3607041
-0.0079519004 0.0011838377 -0.0082319258 3148290
-0.0074153207 0 -0.0084267734 3803651
-0.0081469435 0.0054881088 -0.0070981854 3671566
-0.0076095872 0.004302565 -0.0072932714 4130055
-0.0070722308 0.0031170174 -0.007488417 4000769
-0.0068394467 0.0017547011 -0.0086367605 3935745
-0.0059975181 0.0007459186 -0.0078787087 4460545
-0.0075702369 0.0072453506 -0.0073084706 2230279
-0.0070328806 0.0060597993 -0.0075036162 3147533
-0.0068001524 0.004693225 -0.0086519597 4131593
-0.0062635727 0.0035093985 -0.0088468073 4460293
-0.0057269931 0.0023255609 -0.0090416549 4788228
-0.0051904134 0.001141727 -0.0092365025 5050628
-0.0094437599 0.013550922 -0.0076928609 3939349
-0.0086055994 0.012559235 -0.0069333785 3212299
-0.008068243 0.011373684 -0.0071284645 3277825
-0.0078340191 0.0099994279 -0.0082774041 3409153
-0.0072974395 0.0088156015 -0.0084722517 3278594
-0.0067608599 0.0076317564 -0.0086670993 3213575
-0.0062242784 0.0064479299 -0.0088619469 3868940
-0.0056876838 0.0052640885 -0.0090567945 4591371
-0.0051511191 0.0040802695 -0.009251642 4854538
-0.0046145245 0.0028964318 -0.0094464896 5052168
-0.004077943 0.0017125979 -0.0096413372 5314311
-0.003541365 0.00052876025 -0.0098361848 5576461
-0.0080288928 0.014316469 -0.0071436637 3605006
-0.0074915364 0.013130926 -0.0073388093 2753287
-0.0069541652 0.011945374 -0.0075338953 3279873
-0.0067215655 0.010570284 -0.0086822389 3804417
-0.0061849859 0.0093864724 -0.0088770865 4001537
-0.0056484044 0.0082026273 -0.009071934 4197636
-0.0051118247 0.0070188008 -0.0092667816 4656136
-0.0045752302 0.0058349594 -0.0094616292 5116426
-0.0040386654 0.004651133 -0.0096564768 5250060
-0.0035020707 0.0034672953 -0.0098513244 5381130
-0.002965491 0.0022834614 -0.010046172 5577993
-0.0024289114 0.0010996237 -0.01024102 5774347
-0.0074521862 0.016073719 -0.0073539489 4402692
-0.0069148149 0.01488816 -0.0075490945 3801607
-0.0063774586 0.013702616 -0.0077442401 3212036
-0.0058401022 0.012517065 -0.0079393266 3673089
-0.0053027458 0.011331525 -0.0081344722 4068353
-0.0050725304 0.0099573284 -0.0092819212 4264449
-0.0045359507 0.0087734833 -0.0094767688 4460802
-0.0039993711 0.0075896569 -0.0096716164 4788996
-0.0034627763 0.0064058118 -0.009866464 5182729
-0.0029261967 0.005221989 -0.010061312 5314830
-0.002389617 0.0040381588 -0.010256159 5446668
-0.0018530375 0.0028543249 -0.010451007 5643531
-0.0010038669 0.0018471293 -0.0096955178 5905929
-0.00046651051 0.00066158921 -0.0098906634 5970951
-0.0057283845 0.017041504 -0.0058531039 4337414
-0.005800752 0.01545985 -0.0079545258 3998476
-0.0052633956 0.014274307 -0.0081496714 3737350
-0.0047260243 0.013088755 -0.0083447574 4066305
-0.0041886829 0.011903215 -0.008539903 4395777
-0.0039600637 0.010528199 -0.0096867559 4527105
-0.0034234838 0.0093443543 -0.0098816035 4723201
-0.0025766005 0.0083465613 -0.0091253398 4985090
-0.0020392442 0.0071610212 -0.0093204258 5313285
-0.0018137431 0.0057928599 -0.010466146 5445129
-0.0012771635 0.0046090223 -0.010660994 5577997
-0.00042716027 0.0036043786 -0.0099058626 5773842
0.0001101961 0.0024188198 -0.010100949 6035981
0.00064755249 0.0012332797 -0.010296094 6101769
0.0011849237 4.7724694e-05 -0.01049124 6167302
-0.0046110898 0.017614849 -0.0062596672 4731145
-0.0046866741 0.016031541 -0.0083599566 4461073
-0.0041493177 0.014845997 -0.0085551022 4197385
-0.003611963 0.013660446 -0.0087501882 4328193
-0.0030746066 0.012474902 -0.0089453338 4461313
-0.0028476098 0.011099067 -0.010091591 4657921
-0.0023110283 0.0099152103 -0.010286438 4854785
-0.0014625228 0.0089182518 -0.0095307706 5117185
-0.00092516636 0.0077327117 -0.0097258566 5381634
-0.00070128945 0.0063637234 -0.010870981 5512708
0.00014954635 0.0053616166 -0.010116148 5643790
0.00068690273 0.0041760691 -0.010311292 5774361
0.0012242739 0.002990514 -0.01050638 5904914
0.0017616303 0.0018049702 -0.010701525 5970955
0.0022989868 0.00061941519 -0.010896671 6102534
-0.0034937819 0.018188201 -0.0066662901 5194248
-0.0029548721 0.01699923 -0.0068619722 4923917
-0.0024159641 0.015810251 -0.0070577138 4658441
-0.0024978851 0.014232136 -0.009155619 4590341
-0.0019605288 0.013046607 -0.0093507646 4526084
-0.0014231725 0.011861056 -0.0095459102 4788483
-0.00088581612 0.010675501 -0.0097410558 5051650
-0.00034845978 0.0094899423 -0.0099362014 5249537
0.00018889659 0.0083044022 -0.010131286 5447426
0.00072626787 0.0071188621 -0.010326433 5578756
0.0012636242 0.0059333071 -0.010521579 5710100
0.0018009805 0.0047477596 -0.010716724 5710372
0.0023383361 0.0035622045 -0.01091181 5775638
0.0028756924 0.0023766607 -0.011106956 5906441
0.0034130646 0.0011911057 -0.011302102 6038025
0.0039504198 5.5655837e-06 -0.011497247 5973002
-0.0023765021 0.018761545 -0.007072913 5395463
-0.0012166052 0.017970219 -0.0053663724 5191689
-0.00067612884 0.016777813 -0.0055626505 4988425
-0.00075974484 0.015194602 -0.0076599591 4855306
-0.00084646587 0.013618298 -0.0097561954 4787719
-0.00030910954 0.012432747 -0.009951341 4921605
0.00022826174 0.011247192 -0.010146487 5055491
0.00076561811 0.010061637 -0.010341632 5186561
0.0013029744 0.0088760927 -0.010536718 5317634
0.0018403308 0.0076905526 -0.010731864 5449476
0.0023776863 0.0065049976 -0.010927008 5581337
0.0025967939 0.0051377825 -0.012070405 5645615
0.0031333745 0.0039539412 -0.012265253 5710107
0.0039897691 0.0029483549 -0.011512387 5778183
0.0042065335 0.0015862845 -0.012654948 5846285
0.0047431141 0.00040244684 -0.012849796 5715220
-9.6076947e-05 0.018545225 -0.0057741278 5459717
0.00080496835 0.013004422 -0.010356772 5057031
0.0013423247 0.011818882 -0.010551917 5056772
0.001879681 0.010633327 -0.010747063 5122306
0.0024170515 0.009447787 -0.010942149 5253890
0.0029544078 0.0082622282 -0.011137295 5385474
0.0031726679 0.00689248 -0.012280392 5516813
0.0037092634 0.0057086386 -0.01247524 5582872
0.0042458437 0.0045248121 -0.012670088 5650190
0.0047824075 0.0033409819 -0.012864935 5651972
0.0053189881 0.0021571554 -0.013059783 5651975
0.0058555827 0.00097331032 -0.01325463 5390090
0.0035311144 0.010019477 -0.01134758 5323522
0.0040684696 0.0088339187 -0.011542725 5389057
0.004605826 0.0076483786 -0.011737871 5520129
0.0048217177 0.0062795058 -0.012880075 5586945
0.0053582964 0.0050956681 -0.013074922 5653761
0.00621791 0.0040917359 -0.012323248 5588225
0.0067552663 0.0029061809 -0.012518394 5588481
0.0069680363 0.0015441813 -0.013659465 5458689
0.0051825475 0.0094056278 -0.011948156 5457665
0.0053975917 0.0080342032 -0.013090062 5523713
0.0059341704 0.0068503618 -0.01328491 5590017
0.006470751 0.0056665353 -0.013479757 5721345
-0.012069132 0.00068438053 0.0064256317 3936513
-0.01089849 0.00043298304 0.006654752 4328193
-0.0096233841 0.0076079592 0.0021541242 5183497
-0.0091925301 0.0087759756 0.0041635162 5186066
-0.0088440701 0.0099521056 0.0051381714 5252367
-0.0084964447 0.011124518 0.0061130649 5188109
-0.0082295556 0.012312464 0.0060528642 5189641
-0.0079626683 0.013500407 0.0059926636 4994310
-0.0097278655 0.00018158928 0.0068838722 4722433
-0.0094609763 0.0013695359 0.0068236715 4785921
-0.0091940891 0.0025574826 0.0067634708 4854529
-0.0087140035 0.0061596259 0.0024452333 5184257
-0.008445438 0.0073549896 0.0023845558 5250053
-0.0080182366 0.008523792 0.0043933517 5184778
-0.0077505168 0.0097154491 0.0043329126 5119240
-0.007404292 0.010890119 0.0053073294 5053703
-0.0070589278 0.012061067 0.0062818653 5051397
-0.0067143813 0.013228312 0.0072567589 4590595
-0.0064479094 0.014414407 0.0071966774 4197634
-0.0082903355 0.0011181384 0.0070527918 5183233
-0.0079438649 0.002302479 0.0080263736 5249793
-0.0077565443 0.0034940355 0.0069323904 5315585
-0.007489657 0.0046819896 0.0068721897 5381377
-0.0073010605 0.0058791079 0.0057779676 5381633
-0.0071116611 0.0070799477 0.0046835071 5381890
-0.0068439264 0.0082716085 0.0046231872 5316867
-0.0065762084 0.009463273 0.0045627481 5251842
-0.0062318165 0.01063833 0.0055368072 5251073
-0.005888287 0.011809681 0.0065109855 5182721
-0.0056213979 0.012997612 0.0064507849 4853505
-0.0053544957 0.01418557 0.0063905842 4524289
-0.0050876085 0.015373521 0.0063303835 4262913
-0.0028435381 0.027508542 -0.00048600385 4592129
-0.0027149392 0.028796524 -0.0026185389 4920849
-0.0071196929 0.00086674467 0.0072817928 5643009
-0.0067750551 0.0020514727 0.0082551362 5708289
-0.0065859016 0.003242638 0.0071615106 5642753
-0.0063190144 0.0044305921 0.00710131 5644033
-0.0061286148 0.0056273229 0.0060074455 5578753
-0.0059373677 0.0068277642 0.0049133427 5513985
-0.0056696329 0.0080194324 0.0048529035 5449474
-0.0054019131 0.0092110895 0.0047925836 5448970
-0.0050593708 0.010386541 0.0057662851 5383186
-0.0047176443 0.011558276 0.0067401058 5380873
-0.0045247488 0.012766145 0.0056456453 5116673
-0.0042574462 0.013955951 0.0055853254 4919553
-0.0039901268 0.015145749 0.0055251247 4656897
-0.0040137675 0.016437531 0.0013265734 4396289
-0.0037447882 0.017634757 0.0012658959 4201217
-0.0028101371 0.022493221 -0.0010467643 3410433
-0.0026105752 0.023730792 -0.0021427746 3672321
-0.0022705121 0.024895094 -0.001168477 4068097
-0.0020006986 0.026096046 -0.0012292737 4461569
-0.0016619413 0.02725479 -0.00025473782 4723969
-0.0013925451 0.028453879 -0.00031553456 5051665
-0.001123147 0.029652968 -0.0003763313 5444898
-0.0059490502 0.00061534718 0.0075109131 5841665
-0.0056062452 0.0018004663 0.0084837796 5906177
-0.0054152589 0.0029912405 0.0073905117 5773825
-0.0051483717 0.0041791946 0.007330311 5710337
-0.0049561244 0.0053755306 0.0062368042 5710337
-0.0046888199 0.0065653324 0.0061766035 5713409
-0.0044953395 0.0077672414 0.0050827391 5646337
-0.0042276196 0.0089589059 0.0050224192 5646610
-0.0039598886 0.010150574 0.00496198 5515555
-0.0038373114 0.011377573 0.0028338556 5450258
-0.00335226 0.012514353 0.0058751232 5317633
-0.0031567009 0.013725549 0.0047807819 5185025
-0.0030316149 0.014963701 0.0026521806 4923137
-0.0028339622 0.016184166 0.0015574818 4726785
-0.002635462 0.017408349 0.00046254447 4530433
-0.0023660657 0.018607438 0.00040174773 4268545
-0.0020966677 0.019806527 0.000340951 3938049
-0.0018272864 0.021005601 0.00028027347 3608065
-0.0015578883 0.02220469 0.00021947674 3738369
-0.001356894 0.023440011 -0.00087605661 3934465
-0.001019094 0.024602868 9.8002478e-05 4330241
-0.00074969773 0.025801957 3.720574e-05 4725505
-0.00041314572 0.026959226 0.0010115033 4986881
-0.00021090342 0.028200135 -8.4268526e-05 5249041
5.8492802e-05 0.029399201 -0.00014506526 5576994
-0.0047039241 0.00036337227 0.0087726237 6038786
-0.0044374373 0.0015494637 0.0087125422 6103811
-0.0041709654 0.0027355589 0.0086524608 5970436
-0.003977729 0.0039277934 0.0075594313 5841155
-0.0037108285 0.00511574 0.0074992306 5907714
-0.0034439412 0.0063036904 0.0074390299 5975297
-0.0032490434 0.0075033456 0.0063457615 5908737
-0.0029817389 0.0086931549 0.0062854416 5842953
-0.002785593 0.0098983906 0.0051918156 5711634
-0.0025178601 0.011090048 0.0051313764 5579785
-0.0022501403 0.012281712 0.0050710565 5513729
-0.0021222213 0.013515346 0.0029432897 5447169
-0.001853654 0.014710724 0.0028827314 5251074
-0.0016541983 0.015930802 0.001788271 5119745
-0.0014538652 0.017154604 0.00069381052 4857345
-0.001184469 0.018353678 0.00063301378 4595713
-0.00091507082 0.019552767 0.00057221705 4266497
-0.00064568949 0.020751849 0.00051153952 4002305
-0.00030930698 0.021916948 0.0014850026 4067329
-0.0001068952 0.023150027 0.00038994601 4198913
0.00016250291 0.024349116 0.00032926849 4592642
0.00043189913 0.025548205 0.00026847175 5052929
0.00076661835 0.026705876 0.0012422925 5249025
0.00097069348 0.027946368 0.00014687829 5511697
0.0012400897 0.029145457 8.6200758e-05 5774626
-0.0035351159 0.00011236966 0.0090013864 6236419
-0.0032686291 0.0012984611 0.0089413049 6367237
-0.003073992 0.0024884492 0.0078487517 5972999
-0.0028071029 0.0036764033 0.0077885515 5578757
-0.002611188 0.0048719496 0.0066957599 5908484
-0.0022733135 0.0060522966 0.0076681501 6302722
-0.0020765678 0.007251557 0.0065751201 6039809
-0.0018092635 0.0084413663 0.0065149195 5842689
-0.001541946 0.0096311681 0.0064545996 5776385
-0.0013435519 0.010837857 0.005361212 5710081
-0.0010758321 0.012029521 0.0053007728 5644801
-0.00094427523 0.013262384 0.0031738405 5578242
-0.00067570974 0.014457762 0.0031132821 5513220
-0.00040715918 0.015653133 0.0030526046 5448706
-0.00013859368 0.016848505 0.0029920463 5185025
0.00012997181 0.018043876 0.002931488 4857601
0.00039853729 0.019239254 0.0028709297 4593921
0.00066710281 0.020434625 0.0028103713 4331265
0.0009356534 0.021629997 0.002749813 4461825
0.0012042188 0.022825368 0.0026892547 4658178
0.0014084486 0.024058044 0.0015945559 4919812
0.0016774313 0.025255278 0.0015338784 5249538
0.0019464121 0.026452512 0.0014732009 5512449
0.0022153931 0.027649738 0.0014125233 5776913
0.002484374 0.028846979 0.0013518458 5908258
-0.0021702514 0.0010491051 0.0081379535 6695691
-0.0019033494 0.0022370517 0.0080777528 5975048
-0.0017060469 0.0034303553 0.0069854385 5319693
-0.0014387275 0.0046201609 0.0069251186 5975058
-0.0011714249 0.0058099665 0.0068649179 6629898
-0.00090410729 0.0069997646 0.006804598 6236418
-0.00063680281 0.0081895776 0.0067442781 5907971
-0.00043699131 0.0093940124 0.0056513674 5841413
-0.00016925654 0.010585681 0.0055910475 5841415
-3.4894638e-05 0.011814047 0.0034648303 5775882
0.00023367086 0.013009422 0.003404272 5774857
0.00050223636 0.0142048 0.0033437137 5775369
0.00077078695 0.015400164 0.0032831554 5840645
0.00097437034 0.016621314 0.0021894102 5512705
0.0012433511 0.01781854 0.0021287326 5184769
0.001512332 0.019015767 0.0020680551 4921345
0.001845034 0.020181656 0.0030409221 4724225
0.0021135996 0.021377027 0.0029803638 4920578
0.0023821641 0.022572406 0.0029198055 5116677
0.0026507296 0.023767784 0.0028591279 5312521
0.0028572234 0.025001921 0.0017647868 5510922
0.0031262042 0.026199147 0.0017041093 5775883
0.003395187 0.027396381 0.0016434317 6039572
0.0036641669 0.028593615 0.0015827542 6105629
0.0038123012 0.029883221 -0.00054632372 6239761
-0.00099962379 0.00079770759 0.0083670737 6434321
-0.00080088881 0.0019887649 0.0072752363 6040585
-0.00053358619 0.0031785704 0.0072149164 5647636
-0.00026626684 0.0043683723 0.0071545965 6040352
1.0357867e-06 0.0055581741 0.0070942766 6500625
0.00026835329 0.0067479834 0.0070340759 6236931
0.0005356578 0.0079377852 0.006973756 5973510
0.00073730218 0.0091418363 0.0058812029 5973770
0.0010050369 0.010333497 0.0058207638 5974286
0.0012727549 0.011525154 0.0057604439 5973267
0.00141163 0.012756445 0.0036348228 5971472
0.0016801954 0.013951816 0.0035742645 5973262
0.001948746 0.015147194 0.0035137061 6040071
0.0022173116 0.016342573 0.0034531478 5709825
0.0024858771 0.017537937 0.0033925895 5315585
0.0027544426 0.018733315 0.0033320312 4920833
0.0030229932 0.019928686 0.0032714729 4461314
0.0032915587 0.021124065 0.0032107953 4854531
0.0035601242 0.022319436 0.003150237 5247497
0.0038286888 0.023514807 0.0030896787 5509903
0.004305982 0.025945783 0.0019350176 6106389
0.0045749629 0.027143016 0.0018743401 6434326
0.0048439447 0.02834025 0.0018136626 6371608
0.0049957596 0.029629081 -0.0003147001 6308879
0.0001042673 0.00054717064 0.0075649149 6237194
0.00037158668 0.0017369762 0.007504595 6105863
0.00063888932 0.002926778 0.0074443943 5974795
0.00084069016 0.0041230172 0.0063525564 6171408
0.00110841 0.005314678 0.0062921173 6433801
0.0014408306 0.006496191 0.0072634346 6237443
0.0016438627 0.0076979958 0.0061713583 6105862
0.0019115956 0.0088896602 0.0061110384 6105354
0.0020524601 0.010112736 0.0039864904 6105361
0.0023210237 0.011308104 0.0039259321 6105367
0.0025895892 0.012503475 0.0038653736 6171163
0.0028581547 0.013698854 0.0038048152 6237215
0.0031267053 0.014894232 0.0037442569 6301713
0.0033339404 0.016114585 0.0026512269 5906946
0.0036638372 0.017284974 0.0036230211 5512707
0.0039324015 0.018480353 0.0035624627 4855045
0.0042009521 0.019675717 0.0035019044 4264966
0.0044695176 0.020871095 0.0034413461 4789255
0.0012767279 0.00029537827 0.0077943928 6301955
0.0015440473 0.0014851876 0.0077340729 6236421
0.0017472656 0.0026791655 0.0066427118 6236675
0.0020149986 0.0038708299 0.0065823919 6499073
0.0022827166 0.0050624907 0.0065219528 6761474
0.0026761435 0.0062346533 0.0085243108 6434051
0.0028181702 0.0074458048 0.0064011938 6172167
0.0029618677 0.0086643957 0.0042775995 6237707
0.0032304183 0.0098597668 0.0042170412 6303507
0.0034989838 0.011055142 0.0041564829 6303260
0.0037675493 0.012250513 0.0040959246 6368806
0.0040361146 0.013445884 0.0040353662 6498865
0.0043046651 0.014641255 0.0039746887 6629146
0.0045732306 0.015836634 0.0039141304 6169348
0.0048417961 0.017032005 0.0038535718 5710086
0.0051103616 0.018227376 0.0037930135 5317129
0.0053789122 0.019422747 0.0037324552 4924426
0.0056474777 0.020618126 0.0036718969 5248779
0.0059160432 0.021813504 0.0036113386 5577235
0.0024492035 4.3585896e-05 0.0080238702 6367490
0.002716522 0.0012333877 0.0079635503 6433028
0.0029215573 0.0024269819 0.0068725473 6563587
0.003189293 0.0036186464 0.0068121082 6824450
0.003457011 0.0048103072 0.0067517883 7154694
0.0037247448 0.0060019679 0.0066913492 6694922
0.0039924625 0.0071936287 0.0066310293 6237192
0.0041398266 0.0084114261 0.0045081503 6368774
0.0044083772 0.009606801 0.004447592 6500108
0.0046769427 0.010802172 0.0043870336 6500883
0.0049455091 0.01199754 0.0043263561 6564630
0.0052140746 0.013192914 0.0042657978 6760474
0.0054826252 0.014388293 0.0042052395 6956558
0.0057511907 0.015583672 0.0041446812 6431746
0.0060197562 0.016779028 0.0040841228 5907459
0.0062883217 0.017974406 0.0040235645 5776389
0.0065568723 0.019169785 0.0039630062 5644805
0.0068254368 0.020365164 0.0039024476 5708550
0.0070940023 0.021560535 0.0038418893 5840650
0.0038281179 0.00098314136 0.0071627027 6433284
0.0039749593 0.0021815896 0.0050414926 6563076
0.0042435098 0.0033769645 0.0049809343 6629636
0.0046313033 0.0045581274 0.0069816238 6761739
0.004899038 0.0057497881 0.0069211847 6499090
0.0050492063 0.0069630779 0.0047992594 6236682
0.0053177727 0.0081584603 0.0047385818 6499842
0.0055863224 0.009353824 0.0046780235 6696966
0.0058548888 0.010549203 0.0046174652 6630922
0.0061234543 0.011744577 0.0045569069 6498310
0.0063920207 0.012939952 0.0044963486 6497795
0.0066605704 0.014135323 0.0044357902 6497538
0.0069291359 0.015330695 0.0043752319 6235393
0.0071977004 0.016526066 0.0043146736 5973505
0.0074662659 0.017721444 0.0042541153 5841153
0.0077348314 0.018916808 0.004193557 5775361
0.0048843538 0.00073325261 0.0053326017 6433563
0.0051529193 0.0019286238 0.0052720434 6564368
0.0054214699 0.0031240024 0.0052114851 6434566
0.0056900354 0.0043193698 0.0051508076 6368776
0.0059586009 0.0055147484 0.0050902492 6303241
0.0062271664 0.0067101158 0.0050296909 6303238
0.0064957319 0.0079054907 0.0049691326 6631171
0.0067642834 0.0091008618 0.0049085743 6958351
0.007032848 0.010296237 0.004848016 6695707
0.0073014135 0.011491608 0.0047874576 6498574
0.0075699789 0.012686983 0.0047268993 6300674
0.0078385295 0.013882354 0.004666341 6104321
0.0080530671 0.01510115 0.0035747413 6039297
0.0083756605 0.016273096 0.0045451052 6039300
0.008644226 0.017468475 0.0044845468 5971719
0.0089127915 0.018663846 0.0044239885 5972491
0.006062299 0.00048028305 0.0055631525 6170930
0.0063308645 0.0016756579 0.005502475 6236445
0.0065994151 0.0028710291 0.0054419166 6170889
0.0068120444 0.004072722 0.0043515093 6105349
0.0070810243 0.0052699521 0.0042908317 6104321
0.0073500061 0.0064671822 0.0042302734 6103555
0.007618987 0.0076644048 0.0041695959 6169605
0.0079422276 0.0088478997 0.005139125 6235673
0.0082107931 0.010043267 0.0050785667 6170669
0.0084259165 0.011256095 0.0039875633 6171159
0.0087479241 0.012434013 0.0049574501 5973249
0.0090164747 0.013629384 0.0048967726 5778945
0.0092850402 0.014824763 0.0048362142 5909249
0.0095536057 0.016020127 0.0047756559 6039815
0.0098221712 0.017215505 0.0047150976 6105358
0.0072402582 0.00022731349 0.005793584 5907498
0.0075088236 0.0014226884 0.0057330257 5972762
0.0077773742 0.0026180595 0.0056724674 5906955
0.0079918215 0.0038193613 0.0045824177 5841927
0.0082608033 0.0050165914 0.0045217401 5840900
0.0085297842 0.0062138215 0.0044610626 5905924
0.0087987659 0.0074110478 0.0044003851 5709061
0.0090677468 0.0086082816 0.0043398268 5579027
0.0093887532 0.0097902976 0.0053089983 5711392
0.0096056946 0.011002738 0.0042184717 5842452
0.0099258842 0.012181051 0.0051878816 5646087
0.010194434 0.013376415 0.0051273233 5452807
0.010462998 0.014571786 0.005066765 5716743
0.010731566 0.015767165 0.0050062067 6046983
0.01100013 0.016962543 0.0049456484 6246152
