# .PCD v0.7 - Point Cloud Data file format
VERSION 0.7
FIELDS x y z rgba
SIZE 4 4 4 4
TYPE F F F U
COUNT 1 1 1 1
WIDTH 987
HEIGHT 1
VIEWPOINT 0 0 0 1 0 0 0
POINTS 987
DATA ascii
-0.0098576508 0.0036481842 -0.0017064349 2960385
-0.0087743308 0.0044064224 -0.0019176404 1905921
-0.0076910225 0.0051646363 -0.0021287911 922881
-0.0070496979 0.0041060196 -0.0026397277 2299649
-0.008446699 0.0082745226 -0.0032457141 3739905
-0.0078071808 0.0072189234 -0.0037552246 2953985
-0.0066077039 0.0059228558 -0.0023399401 2233601
-0.0065281736 0.005107726 -0.0047742454 3216385
-0.0080059711 0.010086181 -0.0029467335 3672321
-0.0073664696 0.0090305768 -0.0034562452 3084545
-0.0067269658 0.0079749776 -0.0039657559 3282689
-0.0060874461 0.0069193849 -0.0044752643 3544065
-0.0054479423 0.005863782 -0.004984776 4199169
-0.0072060716 0.01095582 -0.0041213259 3281665
-0.0065674782 0.0099017257 -0.0046300939 3346945
-0.0059288843 0.0088476408 -0.0051389206 3805953
-0.0052902927 0.0077935448 -0.0056476891 4264961
-0.0046516983 0.0067394413 -0.0061564595 4791042
-0.0040131062 0.005685363 -0.0066652838 5382660
-0.0094388723 0.015412926 -0.0076346165 4142337
-0.0082447417 0.0141474 -0.0062094345 3154434
-0.0076088835 0.013097838 -0.0067160302 2233089
-0.0066911546 0.011935781 -0.0062589957 2954241
-0.0060543832 0.010884698 -0.0067663393 3674369
-0.0054176124 0.0098336264 -0.0072736796 4329217
-0.0042115995 0.0085485363 -0.0058579678 4987393
-0.0035730051 0.0074944329 -0.0063667377 5450241
-0.0035073152 0.0066803824 -0.0087957084 5976322
-0.0090019163 0.017209083 -0.0073382333 4074753
-0.0083678775 0.016162507 -0.007843351 3675138
-0.0071706758 0.014899143 -0.006418786 3281411
-0.0065348153 0.013849583 -0.0069253817 2887938
-0.0056155506 0.012688607 -0.0064686569 3543297
-0.0044101053 0.01141169 -0.005050594 4264193
-0.0043420102 0.010586451 -0.0074833408 4855809
-0.0037052366 0.0095353657 -0.0079906853 5513217
-0.0030684657 0.008484276 -0.0084979683 5910785
-0.0024317091 0.0074331928 -0.0090053119 6370817
-0.0017949382 0.0063821189 -0.0095126526 6568193
-0.0073683145 0.017750043 -0.0056149364 3475713
-0.006732468 0.016700467 -0.0061215367 3213825
-0.0060966085 0.015650891 -0.0066281371 3410946
-0.0054607475 0.014601328 -0.0071347337 3607554
-0.0045399466 0.013441432 -0.0066783181 4197378
-0.0039031752 0.012390353 -0.0071856608 4855041
-0.0032664044 0.011339279 -0.0076930011 5448193
-0.0026296324 0.010288175 -0.0082002888 6040833
-0.0019928615 0.0092371022 -0.0087076295 6371329
-0.0013560904 0.0081860218 -0.0092149721 6764802
-0.00071931758 0.007134947 -0.0097223129 6961666
-0.0074939891 0.01975482 -0.0072505213 2821889
-0.0062942477 0.018501796 -0.0058242856 3279361
-0.005658403 0.017452221 -0.0063308859 3738113
-0.0050225426 0.016402639 -0.0068374882 4065793
-0.0043866988 0.015353096 -0.0073441407 4395010
-0.0037508216 0.014303507 -0.0078507438 4920324
-0.0028275712 0.013143178 -0.0073953215 5511426
-0.0021908004 0.012092089 -0.0079026045 5974785
-0.0015540267 0.011041001 -0.008409949 6502657
-0.00091725565 0.0099899285 -0.0089172907 6830082
-0.00028048444 0.008938848 -0.0094246333 7159811
0.0003562863 0.0078877751 -0.0099319741 7290116
0.00099305774 0.0068366928 -0.010439318 7420419
-0.0070570339 0.021550968 -0.00695414 2362369
-0.0064229961 0.020504422 -0.0074593108 1903361
-0.0052201962 0.019253539 -0.0060336385 3083009
-0.0051549338 0.018411279 -0.0084696049 4262404
-0.0039484748 0.017154384 -0.0070468392 4720904
-0.003312631 0.01610484 -0.0075534917 5248262
-0.0026767538 0.015055253 -0.0080600958 5710340
-0.0017519505 0.013895991 -0.007604924 6171397
-0.0011151945 0.012844916 -0.0081122657 6566918
-0.0004784076 0.01179383 -0.0086196102 6961158
0.00015834812 0.010742757 -0.009126951 7223559
0.00079511956 0.0096916743 -0.0096342936 7552262
0.0020189416 0.0084061846 -0.0082253329 7615237
0.0026575201 0.0073521044 -0.0087341592 7681030
-0.0066200797 0.023347124 -0.0066577564 3151105
-0.0059860405 0.022300567 -0.0071629304 3152129
-0.0053520189 0.021254003 -0.0076680444 3153409
-0.0047179791 0.020207435 -0.0081732217 4067585
-0.0040839398 0.019160878 -0.0086783953 4983304
-0.0034499178 0.018114299 -0.009183513 5378575
-0.0022385633 0.016856585 -0.0077628442 5839625
-0.0016027025 0.015806995 -0.0082694478 6236676
-0.00096684042 0.014757415 -0.0087760482 6697224
-0.00033098133 0.013707847 -0.0092826467 6960140
0.00030488078 0.012658264 -0.0097892489 7288588
0.001233969 0.011495582 -0.0093366122 7616780
0.0024590278 0.010215253 -0.0079267872 7944969
0.0030976215 0.0091611734 -0.0084356125 7812359
0.0037362149 0.0081070792 -0.0089443801 7745801
0.0046716938 0.0069338325 -0.008496765 7811851
-0.006466975 0.025237247 -0.007329091 3280385
-0.0055490904 0.024096712 -0.0068664872 3544577
-0.0049150656 0.023050152 -0.0073716627 4004353
-0.0042810277 0.02200361 -0.007876832 4462593
-0.0036470029 0.020957023 -0.0083819525 5052161
-0.0030129636 0.019910466 -0.008887127 5710853
-0.0023789245 0.018863905 -0.0093923025 6042120
-0.0011644955 0.01760833 -0.0079721957 6435343
-0.00052863476 0.01655874 -0.0084787989 6828567
0.00010722748 0.015509159 -0.0089854011 7222798
0.00074308645 0.014459593 -0.0094919987 7421446
0.0013789486 0.013410027 -0.0099986577 7682312
0.002309571 0.012248408 -0.0095462725 8008201
0.0029463423 0.01119733 -0.010053615 8336392
0.0041763163 0.0099161491 -0.0086458344 8075015
0.0051124217 0.0087454896 -0.0081977844 7877127
0.0057519251 0.0076898895 -0.0087072961 7942406
-0.0063801967 0.027985983 -0.0055597564 3349249
-0.0060306466 0.027030814 -0.0070331413 3342593
-0.0051121353 0.025892865 -0.0065701054 3741185
-0.0044781114 0.024846312 -0.0070752772 4134913
-0.0038440721 0.023799736 -0.0075803953 4528385
-0.0032100487 0.022753187 -0.0080855675 4986881
-0.0025760091 0.021706622 -0.0085907429 5513730
-0.0019419701 0.020660046 -0.0090958606 6106370
-0.0013079455 0.019613486 -0.0096010361 6500098
-9.0428162e-05 0.018360082 -0.0081815459 6893846
0.00054543308 0.017310487 -0.00868815 7157290
0.0011812934 0.016260905 -0.0091947522 7486229
0.0018171524 0.015211337 -0.0097013507 7617281
0.0024530145 0.014161773 -0.010208009 7748356
0.0033851769 0.013001236 -0.0097559337 7942919
0.0046164179 0.011725234 -0.0083473455 8140039
0.0052550109 0.010671142 -0.0088561121 8008712
0.0061926376 0.0095015634 -0.0084083732 7942917
0.0068321582 0.0084459614 -0.008917884 8008450
0.0074716611 0.0073903678 -0.0094273929 8141825
-0.0062274509 0.029869437 -0.0062326994 2236931
-0.0055943229 0.028824374 -0.0067371316 2957825
-0.0049612098 0.027779318 -0.0072415643 3678209
-0.0043280809 0.02673427 -0.0077459947 4201985
-0.0036949683 0.025689214 -0.0082504265 4725761
-0.0030618408 0.024644159 -0.0087548587 5118465
-0.0024287272 0.023599096 -0.0092592929 5513473
-0.0015050319 0.022456199 -0.0087994765 5975553
-0.00087099336 0.021409649 -0.0093046483 6500354
-0.00023695373 0.020363083 -0.0098098256 6895363
0.00098363776 0.019111827 -0.008390896 7353888
0.0016194987 0.018062238 -0.0088975001 7555134
0.0022553587 0.017012659 -0.0094041023 7813663
0.0031872382 0.015856225 -0.0089509077 7812865
0.0038240103 0.014805135 -0.0094582532 7878150
0.0050565037 0.013534305 -0.0080487989 7943436
0.005695112 0.01248021 -0.0085575664 8008972
0.0063336892 0.011426128 -0.0090663917 8008716
0.0072728707 0.010257613 -0.0086189052 8008716
0.0079123899 0.0092020128 -0.009128416 8140043
0.0085518919 0.0081464164 -0.0096379258 8337943
-0.0060759126 0.031747717 -0.0069064447 3675400
-0.0054437085 0.030704156 -0.0074101388 3282948
-0.0048114932 0.029660609 -0.007913826 3874817
-0.0041792891 0.028617043 -0.0084175188 4465665
-0.0035470729 0.027573515 -0.0089212656 4793601
-0.0029148706 0.026529964 -0.0094249528 5187329
-0.0019923996 0.025392674 -0.0089633409 5580801
-0.0010680784 0.024252374 -0.0085030887 5908993
-0.00043403893 0.023205806 -0.009008266 6303233
0.00020000036 0.02215923 -0.0095133837 6697730
0.000834023 0.021112666 -0.010018559 7025924
0.0014680459 0.020066123 -0.010523727 7420971
0.0026935665 0.018813983 -0.0091068521 7682898
0.0033294267 0.017764401 -0.0096134534 7944745
0.0039652875 0.016714834 -0.010120051 7878657
0.0048996303 0.015557965 -0.0096679134 7878153
0.0055363867 0.014506889 -0.010175254 7877905
0.0067737908 0.013235193 -0.008767847 7943441
0.0074123843 0.012181098 -0.0092766155 7812369
0.0083531002 0.011013685 -0.0088294931 7746835
0.0089926198 0.0099580847 -0.0093390038 7681813
0.010240015 0.0086698271 -0.007939646 7616814
0.010881355 0.00761123 -0.0084506385 7160647
-0.005640226 0.033538688 -0.0066108713 3675140
-0.0055806902 0.032662433 -0.009053451 4002056
-0.0043758065 0.031451598 -0.007618309 4331270
-0.0037435885 0.030408051 -0.0081219953 4791813
-0.0036895336 0.029540803 -0.010560187 5252099
-0.0030591525 0.02850027 -0.011062451 5448961
-0.0018469682 0.027277406 -0.0096331239 5711878
-0.00092295953 0.026141182 -0.0091717616 6041099
-0.00028983143 0.025096118 -0.0096761957 6368776
0.00063693582 0.023955394 -0.0092169978 6630917
0.0012709755 0.022908829 -0.0097221732 6893572
0.0019050142 0.021862257 -0.010227289 7156482
0.0031317719 0.020615315 -0.0088096 7484954
0.0037676345 0.019565728 -0.0093162041 7748145
0.0044034943 0.018516146 -0.0098228063 8075802
0.0053384625 0.017361879 -0.0093702301 7944962
0.0059752339 0.016310798 -0.0098775718 7878928
0.0066120052 0.015259718 -0.010384915 7878686
0.0078524854 0.013990168 -0.0089780688 7877907
0.0087938281 0.012825342 -0.0085305125 7681801
0.009433331 0.011769741 -0.0090400241 7485450
0.010072852 0.010714143 -0.0095495339 7223563
0.010712354 0.0096585471 -0.010059044 6962718
0.011964662 0.0083694421 -0.0086617898 6637618
-0.0051462413 0.034448229 -0.0087587442 4199941
-0.0045158616 0.033407703 -0.0092610056 4527625
-0.003885481 0.032367151 -0.0097632119 4790025
-0.0032551005 0.031326614 -0.010265475 5183753
-0.0026247199 0.030286081 -0.010767739 5579781
-0.0019943246 0.029245548 -0.011270002 5776385
-0.0007790653 0.028024822 -0.0098412409 6040075
-0.00014686119 0.026981276 -0.01034499 6236949
0.00077960722 0.025844641 -0.009884676 6499343
0.0017079294 0.024704978 -0.0094257304 6761738
0.0023419689 0.023658413 -0.009930905 7024133
0.0035699962 0.022416621 -0.0085123563 7220993
0.0042058397 0.021367058 -0.009018952 7418121
0.0048417021 0.020317473 -0.0095255561 7615505
0.0054775625 0.019267891 -0.010032157 7878410
0.0064140661 0.018114712 -0.0095798876 7747844
0.0070508402 0.017063625 -0.010087233 7683096
0.0076876092 0.016012551 -0.010594574 7747884
0.0089311805 0.014745158 -0.0091883466 7746838
0.0095697567 0.013691061 -0.009697116 7420929
0.010513565 0.012525789 -0.0092505571 7029505
0.011153083 0.011470208 -0.0097601246 6767361
0.011792572 0.010414613 -0.010269633 6505231
0.013047967 0.0091276625 -0.0088729393 6310430
0.013689309 0.0080690468 -0.009383874 6114837
-0.0047118096 0.036234047 -0.0084640309 4463363
-0.0040814136 0.03519351 -0.008966295 4790542
-0.0034510484 0.034152977 -0.0094685573 5052441
-0.0028206529 0.033112425 -0.0099707637 5314575
-0.0021902723 0.032071892 -0.010473028 5575941
-0.0015598917 0.031031359 -0.010975292 5907459
-0.00092951115 0.029990826 -0.011477554 6104065
-0.0002991308 0.028950274 -0.011979761 6368010
0.00092103926 0.027728699 -0.010553103 6498835
0.0018490481 0.026593138 -0.010093101 6695439
0.0024821754 0.025548089 -0.010597531 6892042
0.0034129457 0.024407998 -0.010139639 7154439
0.0046440633 0.023168374 -0.0087217046 7286019
0.0052799075 0.022118811 -0.0092283022 7417606
0.005915768 0.021069225 -0.0097349044 7549449
0.0068529011 0.019918611 -0.009282209 7682310
0.007489671 0.018867537 -0.0097895488 7616514
0.0081264433 0.017816436 -0.010296836 7551757
0.0087632136 0.016765362 -0.010804178 7617048
0.010009859 0.01550015 -0.0093986262 7683340
0.010648452 0.014446055 -0.0099073946 7160065
0.011593796 0.013281864 -0.009461144 6636546
0.0122333 0.012226261 -0.0099706557 6375171
-0.004277363 0.038019855 -0.0081693213 4328965
-0.0039361273 0.037056692 -0.00964153 4658949
-0.0030166004 0.035938784 -0.0091738477 4987927
-0.0023862205 0.034898259 -0.0096761091 5249577
-0.0017558392 0.033857699 -0.010178316 5576981
-0.0011254442 0.03281717 -0.010680581 5839105
-0.00049506361 0.031776637 -0.011182844 6104321
0.00013531523 0.0307361 -0.011685109 6366465
0.0013567394 0.029519703 -0.010257581 6630665
0.0019889416 0.028476141 -0.010761273 6761234
0.002918503 0.027341664 -0.010301579 6957582
0.0038498996 0.026204158 -0.0098432526 7022859
0.0044839387 0.025157601 -0.010348426 7086600
0.0057181292 0.023920119 -0.0089310575 7218182
0.0063539748 0.022870556 -0.0094376542 7284484
0.0069898358 0.021820966 -0.0099442583 7352066
0.0079285046 0.020671438 -0.0094918683 7420929
0.0085652769 0.019620348 -0.0099991523 7289601
0.0092020463 0.018569261 -0.010506498 7224066
0.0098388176 0.017518189 -0.011013838 7093764
0.011088554 0.016255125 -0.009608848 6963714
0.011727147 0.015201046 -0.010117673 6571521
-0.0035023065 0.038839918 -0.0093472525 4526083
-0.0028728372 0.037800889 -0.0098487735 4854531
-0.001951772 0.036684062 -0.0093814004 5247756
-0.001321407 0.035643533 -0.0098836627 5510165
-0.00069101073 0.034602974 -0.010385871 5839115
-6.0632592e-05 0.033562444 -0.010888133 6102529
0.00056974788 0.032521911 -0.011390395 6365441
0.0012001287 0.031481374 -0.011892661 6629121
0.0024246417 0.030267131 -0.010465695 6892306
0.0030568456 0.02922358 -0.010969444 7090723
0.0039879438 0.028090164 -0.010510004 7284760
0.0049208784 0.026953742 -0.010051986 7153676
0.0055549177 0.025907181 -0.010557162 7086601
0.0067921975 0.024671864 -0.0091404095 7152389
0.0074280407 0.0236223 -0.0096470043 7218948
0.0080639031 0.022572711 -0.010153609 7220228
0.0090041235 0.021424249 -0.0097014718 7223042
0.0096408799 0.020373175 -0.010208813 7027201
0.010277666 0.019322088 -0.010716158 6897153
0.010914423 0.018271016 -0.011223499 6570754
-0.0024390311 0.03958413 -0.0095545519 4919809
-0.0018095602 0.038545083 -0.010056017 5181953
-0.0011800916 0.037506077 -0.010557594 5509633
-0.00055062212 0.036467034 -0.011059117 5707265
7.8847166e-05 0.035428002 -0.011560639 5970433
0.0010041957 0.034307722 -0.011095686 6233345
0.0016345761 0.033267185 -0.01159795 6430209
0.0022649567 0.032226652 -0.012100212 6628609
0.0034925444 0.031014562 -0.010673866 6892059
0.0041247485 0.029971 -0.011177559 7153717
0.0050573843 0.028838683 -0.010718484 7415585
0.0059918696 0.027703349 -0.010260774 7218446
0.0066259089 0.026656769 -0.010765892 6955785
0.0078662643 0.025423605 -0.0093497606 6890757
0.008502108 0.024374045 -0.0098563563 6891269
0.0091379695 0.02332446 -0.01036296 6827782
0.0097738318 0.022274893 -0.01086962 6828803
0.010716485 0.021126002 -0.010418475 6635265
0.011353273 0.020074915 -0.010925818 6505729
0.011990028 0.019023843 -0.01143316 6178817
-0.0013757534 0.04032832 -0.0097617973 5378567
-0.00074628484 0.039289296 -0.010263318 5575434
-0.00011681777 0.038250264 -0.010764839 5772805
0.00051265315 0.037211232 -0.01126636 5970177
0.0011421377 0.036172196 -0.011767883 6166786
0.0020690092 0.035052996 -0.011303239 6364164
0.0026993896 0.034012463 -0.011805502 6561540
0.0033297702 0.03297193 -0.012307765 6693636
0.0045604487 0.031762004 -0.010882037 6890514
0.0051926509 0.030718438 -0.01138573 7218720
0.0064288066 0.029499494 -0.0099643311 7611157
0.0070628468 0.028452925 -0.010469509 7217419
0.0083044693 0.027224939 -0.0090525085 6890503
0.0089403298 0.026175361 -0.0095591098 6694659
0.0095761754 0.025125798 -0.010065706 6564870
0.010212036 0.024076227 -0.010572366 6500874
0.010847898 0.023026645 -0.011078969 6503173
0.00031700276 0.040033497 -0.010470558 5707795
0.00094647356 0.038994469 -0.010972079 5904906
0.0015759428 0.037955433 -0.011473602 6035714
0.0022054124 0.036916398 -0.011975124 6166788
0.0031338374 0.03579827 -0.011510791 6299399
0.0037642177 0.034757741 -0.012013054 6433031
0.0049961335 0.033552974 -0.010586461 6562824
0.0056283507 0.032509428 -0.01109015 6692362
0.0065631508 0.031380765 -0.010630956 6888972
0.0074997991 0.0302491 -0.010173121 7151370
0.008133838 0.029202517 -0.010678239 6890504
0.0093785375 0.027976684 -0.0092618596 6629892
0.010014398 0.026927106 -0.0097684618 6434305
0.010650242 0.025877547 -0.010275057 6304519
0.011286104 0.024827968 -0.010781718 6241038
0.011921965 0.02377839 -0.011288321 6177543
0.0013802799 0.040777691 -0.010677801 5905421
0.0020097489 0.039738663 -0.011179322 6036232
0.0026392182 0.038699627 -0.011680843 6101508
0.0035682684 0.037584078 -0.011216082 6168072
0.004198649 0.036543544 -0.011718344 6234636
0.0048290314 0.035503015 -0.012220608 6366995
0.0060640373 0.034300417 -0.010794632 6432282
0.0066962526 0.033256866 -0.011298321 6562834
0.0076325904 0.032129273 -0.010839377 6627849
0.0085707912 0.030998688 -0.010381851 6693639
0.0098167434 0.029778004 -0.0089646112 6565124
0.010452589 0.028728433 -0.0094712116 6435332
0.011088451 0.027678847 -0.0099778138 6240004
0.01172431 0.026629288 -0.010484409 6044933
0.01236017 0.025579717 -0.01099107 5980935
0.0033723207 0.040410437 -0.010419164 6102278
0.004002701 0.039369911 -0.010921424 6232582
0.0046330821 0.038329355 -0.011423634 6365707
0.0058675339 0.037134942 -0.0099953674 6300689
0.006499738 0.036091376 -0.01049906 6301215
0.0074358038 0.034967903 -0.010038994 6301229
0.0080689164 0.033922851 -0.010543425 6301466
0.0090077464 0.032794829 -0.010085471 6366215
0.010254951 0.031579327 -0.0086673629 6366980
0.010890812 0.030529752 -0.0091739632 6305281
0.01152667 0.029480178 -0.0096805636 6241796
0.012162518 0.028430596 -0.010187166 5980935
0.013729116 0.027109571 -0.0078176223 5720324
0.0050675143 0.040115189 -0.011128977 6363907
0.0056979102 0.039074633 -0.011631185 6562822
0.0069354372 0.03788238 -0.010203538 6366729
0.007567639 0.036838818 -0.010707231 6236432
0.0085052438 0.0357164 -0.010247419 6171671
0.0094447006 0.034590974 -0.0097890291 6105615
0.010693157 0.033380654 -0.0083701136 6103559
0.011329018 0.032331072 -0.0088767149 6107396
0.011964878 0.031281497 -0.0093833152 6045697
0.012600739 0.030231919 -0.0098899137 6047490
0.013236586 0.029182337 -0.010396517 5721604
0.014807809 0.02786456 -0.0080279019 5393922
0.0061323424 0.040860463 -0.011336531 6169089
0.006762723 0.039819907 -0.01183874 6235649
0.007393118 0.038779374 -0.012341 6104833
0.0086355414 0.037586257 -0.0109154 6040833
0.0092677455 0.03654271 -0.01141909 5909761
0.011131378 0.035181973 -0.0080728661 5844228
0.011767223 0.034132406 -0.0085794618 5911560
0.012403086 0.033082824 -0.009086065 6044677
0.013038944 0.03203325 -0.0095926635 5981698
0.013674807 0.030983675 -0.010099264 5918465
0.0078275502 0.040565185 -0.012046291 5973510
0.0084579308 0.039524652 -0.012548555 5908481
0.0090883113 0.038484115 -0.013050819 5845250
0.0097186919 0.037443578 -0.013553081 5714436
0.012205446 0.035933714 -0.0082822181 5586692
0.012841292 0.034884147 -0.0087888157 5786628
0.013477152 0.033834569 -0.0092954161 5983241
0.0085850954 0.041381579 -0.013218641 5584395
0.009214567 0.040342543 -0.013720164 5649666
0.010153141 0.039229393 -0.01325837 5715204
0.01078352 0.03818886 -0.013760634 5718023
0.0096483715 0.042125784 -0.013425883 5194246
0.010277843 0.041086737 -0.013927408 5391873
-0.018797843 0.0010047778 0.0057353373 4592398
-0.018731592 0.0023940783 0.0049972669 4722961
-0.018562637 0.0035545658 0.0052690734 4267029
-0.018393664 0.0047150208 0.0055409963 3872779
-0.018224694 0.0058755111 0.0058128028 4265729
-0.018055724 0.0070359651 0.0060847248 4593425
-0.017627537 0.00079357624 0.0059095384 4854535
-0.017458847 0.0019522235 0.0061809388 4986377
-0.017390471 0.0033429973 0.0054436647 4725259
-0.017121438 0.0042694798 0.0067238561 4528646
-0.016952747 0.0054281242 0.0069952584 4659714
-0.01688356 0.0068244291 0.0062592006 4790283
-0.016615339 0.0077454168 0.0075380621 4396820
-0.016446648 0.0089040594 0.0078094625 4069644
-0.016259192 0.00012610108 0.0081023946 4988673
-0.016288541 0.0017409883 0.0063552535 5055489
-0.016218338 0.0031314306 0.0056182542 4921857
-0.015951134 0.0040582791 0.0068980572 4790786
-0.015782442 0.0052168909 0.0071695722 5051395
-0.015711423 0.0066128625 0.0064337919 5312261
-0.01554247 0.0077733546 0.0067056003 4919815
-0.0153735 0.0089338105 0.0069775223 4527364
-0.015204526 0.010094299 0.0072493306 4659458
-0.015035557 0.011254788 0.0075211381 4790529
-0.014866602 0.012415242 0.0077930591 4920577
-0.014697632 0.013575731 0.0080648679 4988929
-0.014924457 0.0010704976 0.0085467473 5184513
-0.014949562 0.0026884004 0.0068009705 5118466
-0.014780855 0.0038470468 0.007072371 5052162
-0.014612168 0.0050056903 0.0073437733 5443074
-0.014539275 0.0064012948 0.0066083814 5836291
-0.014274757 0.0073229522 0.0078866929 5443077
-0.014201349 0.0087222736 0.0071519981 5052164
-0.014032379 0.0098827295 0.0074239201 5052418
-0.013958171 0.011287515 0.0066906731 5052162
-0.013788933 0.012449844 0.0069628875 5051906
-0.013713922 0.013860122 0.0062309722 5054721
-0.013544418 0.015024266 0.0065037063 4925185
-0.013757857 0.00085996464 0.0087203942 5577218
-0.013779258 0.002477169 0.0069752843 5445636
-0.013610551 0.0036358144 0.0072466866 5379074
-0.013441864 0.0047944607 0.007518088 5574913
-0.013367128 0.0061897608 0.0067828591 5771778
-0.013198171 0.0073502176 0.007054782 5510660
-0.013029201 0.0085107079 0.0073265894 5249539
-0.012860231 0.0096711628 0.0075985114 5249539
-0.012784164 0.011075611 0.0068655401 5316611
-0.012614926 0.01223794 0.0071377535 5316867
-0.01253807 0.013647887 0.006406114 5317122
-0.012368569 0.014812063 0.0066787344 5252097
-0.012199063 0.015976202 0.0069514676 5253377
-0.012029562 0.017140344 0.0072242017 5251329
-0.011860058 0.018304486 0.0074969358 5251589
-0.011381239 0.026885513 0.00313493 4989458
-0.011210125 0.028060682 0.003410215 4990751
-0.010949874 0.028966144 0.004684363 4992027
-0.010779044 0.030139469 0.004959242 5059351
-0.010696812 0.031586185 0.0042360681 5192460
-0.010525715 0.032761354 0.0045113522 5261314
-0.010354599 0.033936486 0.0047867508 5330177
-0.0101835 0.035111651 0.0050620348 5067009
-0.012591284 0.00064940378 0.0088941585 5969670
-0.012423113 0.0018043667 0.0091647506 5838602
-0.01244026 0.003424583 0.0074210023 5707018
-0.012271572 0.0045832293 0.0076924036 5705738
-0.012194961 0.0059781931 0.0069574495 5707026
-0.012026006 0.007138649 0.0072293715 5577242
-0.011857037 0.0082991393 0.0075011789 5511953
-0.011779396 0.0097014122 0.006768079 5512200
-0.011610173 0.010863742 0.0070402925 5579538
-0.011440935 0.01202604 0.0073126196 5580061
-0.011362219 0.01343568 0.0065811421 5579535
-0.011192715 0.014599827 0.0068538771 5579009
-0.011023214 0.015763965 0.0071266103 5644545
-0.010943428 0.017180949 0.0063968715 5579265
-0.010684209 0.018092254 0.0076720803 5578757
-0.010514706 0.019256424 0.0079446975 5316106
-0.010448093 0.024058904 0.0037614866 5053442
-0.010365352 0.025496099 0.0030364427 4920835
-0.010194253 0.026671261 0.0033117267 4853770
-0.0099355802 0.027578916 0.0045860088 4721426
-0.0098520368 0.029021602 0.0038622967 4662799
-0.0095939133 0.029925559 0.0051357639 4595468
-0.0095098224 0.031371932 0.0044128639 4593161
-0.0093387235 0.032547105 0.0046881498 4197639
-0.0091676097 0.033722274 0.0049634348 3870468
-0.0089965109 0.034897439 0.0052387179 3871233
-0.011333365 0.00021022558 0.010075625 6165770
-0.011256525 0.0015938357 0.0093383975 6166289
-0.011269957 0.0032133814 0.0075952015 6167314
-0.011101266 0.0043720286 0.0078666043 6036755
-0.011022829 0.0057666255 0.0071320399 5972002
-0.010853874 0.0069271158 0.0074038482 5906993
-0.010684904 0.0080875717 0.0076757702 5907487
-0.01051593 0.0092480611 0.007947579 5907726
-0.010436164 0.010651842 0.0072151595 5908258
-0.010266926 0.011814138 0.0074874866 5908535
-0.010186354 0.013223442 0.0067562847 5908764
-0.010016849 0.014387586 0.0070290188 5908993
-0.0098473486 0.015551725 0.007301752 5975041
-0.0097656995 0.016968373 0.0065722889 5974529
-0.0095959324 0.018134359 0.0068454291 5974278
-0.0094261635 0.019300345 0.0071185692 5710092
-0.0093434528 0.020724375 0.0063907322 5444871
-0.0093469955 0.022411827 0.0046635899 5446403
-0.0091764275 0.023583334 0.0049379463 5380866
-0.0090921149 0.025018353 0.0042127729 5248769
-0.0089212824 0.026191678 0.0044876509 5117187
-0.0087504331 0.027365003 0.0047625299 5051909
-0.0085796006 0.028538328 0.0050374088 4989187
-0.0084087662 0.029711649 0.0053122859 5054465
-0.0082379188 0.030885007 0.0055870493 5117190
-0.0081517342 0.032332856 0.0048649455 4854028
-0.0079806205 0.033508025 0.0051402305 4590855
-0.0078095221 0.034683187 0.0054155136 4460802
-0.010168649 0 0.010249114 6428680
-0.010089938 0.0013832692 0.00951216 6494217
-0.010099683 0.0030021518 0.0077695171 6627337
-0.0099309925 0.0041607972 0.008040918 6432778
-0.0097622853 0.0053194426 0.0083123203 6301457
-0.0096817259 0.0067155492 0.0075784395 6301209
-0.0095127523 0.0078760386 0.0078502465 6300688
-0.0093437824 0.0090364944 0.0081221703 6300167
-0.0091748126 0.010196984 0.0083939768 6301457
-0.0090058576 0.011357474 0.0086657852 6236956
-0.0089236964 0.012764568 0.0079345666 6237198
-0.0088410005 0.014175353 0.0072041624 6302977
-0.0086714961 0.015339526 0.007476781 6368514
-0.0085019935 0.016503669 0.0077495161 6366979
-0.008418221 0.017921818 0.0070207319 6366470
-0.008248454 0.019087806 0.0072938739 6104074
-0.0081638843 0.020511463 0.0065664253 5906438
-0.007993849 0.021679293 0.0068399715 5839874
-0.007993158 0.023369759 0.0051141917 5773825
-0.0078225918 0.024541244 0.0053886655 5576705
-0.0076520243 0.025712758 0.0056630219 5445378
-0.0074814423 0.026884247 0.0059374976 5379844
-0.0073108743 0.028055757 0.0062118541 5382403
-0.0071403072 0.029227238 0.0064863269 5513730
-0.0069697262 0.030398719 0.0067607998 5643012
-0.0068819546 0.031844426 0.0060384511 5445383
-0.006711123 0.033017743 0.0063133291 5313540
-0.0066225501 0.034468953 0.005592315 4985089
-0.0089233648 0.0011727046 0.0096859224 6694913
-0.0087552052 0.0023276638 0.0099565126 6827265
-0.008760687 0.003949563 0.0082152337 6630401
-0.0085919816 0.0051082103 0.008486636 6499329
-0.0085095745 0.0065039834 0.0077530299 6499073
-0.0083406046 0.0076644728 0.0080248378 6499073
-0.0081716347 0.0088249631 0.0082966462 6498561
-0.008002663 0.0099854199 0.00856857 6498305
-0.0078337081 0.011145908 0.0088403765 6499329
-0.0077496753 0.012552665 0.0081094336 6500353
-0.0075804382 0.013715 0.008381648 6565633
-0.007495644 0.01512729 0.0076519246 6696707
-0.0073261405 0.016291428 0.0079246573 6696710
-0.0072405119 0.017709253 0.0071961521 6631175
-0.007070743 0.018875241 0.0074692932 6433032
-0.0069009741 0.020041224 0.0077424324 6234628
-0.006814281 0.021466389 0.0070156665 6171649
-0.0066442466 0.022634216 0.0072892117 6043137
-0.006639306 0.024327707 0.0055647991 5906945
-0.0063041756 0.024969839 0.0078364201 5840386
-0.0062981551 0.026670672 0.0061137439 5775108
-0.0061275908 0.027842179 0.0063881003 5775619
-0.0059570232 0.029013664 0.0066625732 5775875
-0.0057864408 0.030185178 0.0069369315 5840898
-0.005696828 0.031630516 0.006214974 5775106
-0.0055259946 0.032803837 0.006489851 5709313
-0.0054355613 0.034254707 0.0057691126 5380353
-0.0052644471 0.035429876 0.0060443976 5116929
-0.0077567925 0.0009621419 0.0098596867 6826753
-0.0077590845 0.002579717 0.0081180315 7089409
-0.0075903959 0.0037383288 0.0083895475 6893569
-0.0074216924 0.0048969751 0.0086609498 6696707
-0.0073374263 0.0062924493 0.0079275072 6696710
-0.0071684574 0.0074529052 0.0081994291 6696708
-0.0069994847 0.0086133927 0.0084712356 6697731
-0.0068305158 0.009773883 0.008743044 6696962
-0.006661559 0.010934339 0.009014966 6696450
-0.0064925873 0.012094826 0.0092867743 6763019
-0.0064064604 0.013503101 0.008556515 6894869
-0.0062372233 0.014665433 0.0088287294 7091980
-0.0061502759 0.016079195 0.0080998 7026947
-0.0059807734 0.017243374 0.0083724204 6959876
-0.005893033 0.018662669 0.0076447115 6762245
-0.0057232664 0.019828651 0.0079178512 6631427
-0.0056347144 0.021253482 0.0071913614 6500865
-0.0054646777 0.022421308 0.0074649057 6369025
-0.0052946438 0.023589138 0.0077384519 6302978
-0.005124609 0.024756968 0.0080119986 6234626
-0.0051148864 0.026457123 0.0062898737 6168067
-0.0049443184 0.027628604 0.0065643447 6168580
-0.0047737504 0.028800085 0.0068388185 6103557
-0.0046031685 0.029971603 0.0071131778 6038787
-0.0044326028 0.031143084 0.0073876497 6039809
-0.0043408638 0.032589961 0.0066662594 6103809
-0.0041700159 0.033763289 0.0069411383 5840385
-0.0039991825 0.034936611 0.0072160154 5577729
-0.006590202 0.00075161271 0.010033336 6761985
-0.0065887803 0.0023684837 0.0082923472 6893057
-0.0064200908 0.0035271291 0.0085637476 6762753
-0.0062513868 0.0046857763 0.0088351499 6632198
-0.0061652786 0.0060808789 0.0081020966 6631435
-0.0059963069 0.0072413683 0.008373905 6631176
-0.005827337 0.0084018223 0.0086458251 6697990
-0.0056583653 0.0095623145 0.0089176353 6764036
-0.0054894085 0.010722768 0.0091895554 6829315
-0.0053204391 0.011883256 0.0094613638 6894870
-0.0052324408 0.013291196 0.008731382 7223082
-0.0050632036 0.01445353 0.0090035945 7551253
-0.0049744262 0.015866991 0.008274829 7354369
-0.0048049232 0.017031133 0.0085475612 7157506
-0.0047153244 0.01845013 0.0078200158 6958851
-0.0045455559 0.019616112 0.0080931541 6828034
-0.0043757875 0.020782068 0.0083664097 6631681
-0.0042851092 0.0222084 0.0076405997 6499330
-0.0041150749 0.02337623 0.0079141464 6564612
-0.0039450382 0.024544057 0.0081876926 6629123
-0.0037750043 0.025711887 0.0084612388 6498306
-0.0037610312 0.02741503 0.006740592 6367492
-0.003590466 0.028586548 0.0070149503 6302471
-0.0034198831 0.029758025 0.0072894222 6237700
-0.0032493151 0.030929502 0.0075638941 6434049
-0.0030787471 0.032101016 0.0078382511 6630401
-0.0029848851 0.033549376 0.0071176603 6235393
-0.0028140517 0.034722701 0.0073925364 5777409
-0.0054236143 0.00054104999 0.010207098 6763011
-0.0054185055 0.0021572504 0.008466661 6697474
-0.0052498165 0.0033158958 0.0087380633 6631938
-0.0050811102 0.004474544 0.0090094656 6631685
-0.0049931281 0.0058693094 0.0082766861 6566153
-0.0048241587 0.0070297979 0.0085484944 6566150
-0.0046551889 0.0081902528 0.0088204164 6698500
-0.0045661572 0.0095923645 0.0080893766 6895107
-0.0043969201 0.010754697 0.008361591 6960387
-0.0042276843 0.011916995 0.0086339191 7091471
-0.0041375658 0.013326442 0.007904619 7551259
-0.0039680628 0.014490617 0.0081772376 8009233
-0.0037985593 0.015654756 0.0084499717 7680519
-0.0037073684 0.017071571 0.0077222916 7352326
-0.0035375995 0.018237557 0.0079954341 7155462
-0.0034456118 0.019659873 0.0072690896 7024644
-0.0034306129 0.021344017 0.0055445912 6828290
-0.0032600448 0.022515491 0.0058190632 6696707
-0.0030894778 0.023687012 0.0060934215 6826243
-0.0029189112 0.02485849 0.0063678925 7022850
-0.0027483287 0.026029974 0.0066423663 6760961
-0.002577761 0.027201489 0.0069167237 6564612
-0.0024831197 0.028642166 0.0061946674 6499591
-0.0023122716 0.029815495 0.0064695454 6434053
-0.002141438 0.030988816 0.0067444243 6827010
-0.0019706045 0.032162137 0.0070193033 7218945
-0.0017997567 0.03333547 0.0072941822 6627841
-0.001628923 0.034508824 0.0075689456 6039809
-0.0042482181 0.0019460209 0.0086409766 6763268
-0.0040795268 0.0031046644 0.0089123789 6762499
-0.0039108233 0.0042633116 0.0091837812 6762245
-0.0037421188 0.005421957 0.0094551817 6762759
-0.0035734274 0.0065806014 0.009726584 6763268
-0.0034830556 0.0079787225 0.0089948941 6829058
-0.0033921488 0.0093804924 0.00826413 6960643
-0.0032229135 0.010542793 0.008536458 7025412
-0.0030536763 0.011705123 0.0088086724 7090440
-0.0029617143 0.013114238 0.008079648 7352844
-0.0027922108 0.014278379 0.0083523802 7615501
-0.0026994417 0.015693014 0.0076245717 7418382
-0.0025296733 0.016858999 0.0078977104 7285515
-0.0023599043 0.018024985 0.0081708524 7155209
-0.0022660585 0.019446973 0.0074447836 7023878
-0.0022473405 0.021130439 0.0057208375 6893828
-0.0020767744 0.02230192 0.0059953085 6763267
-0.0019062068 0.023473434 0.0062696668 6762755
-0.0017356391 0.024644915 0.0065441388 6827778
-0.0015650571 0.025816403 0.0068186135 6696961
-0.0013944891 0.026987914 0.0070929709 6566148
-0.0012979894 0.02842826 0.0063711903 6500104
-0.0011271411 0.029601585 0.0066460683 6368518
-0.00088277273 0.03050239 0.0079162735 6630148
-0.00071220496 0.031673871 0.0081907455 6824706
-0.00061462587 0.03312159 0.0074705896 6497793
-0.00044379407 0.034294911 0.0077454667 6105602
-0.0030779112 0.0017348193 0.0088151768 6894598
-0.0029092222 0.0028934665 0.0090865791 6893058
-0.0027405182 0.0040520802 0.009358095 6892804
-0.0026488327 0.0054462114 0.0086257551 6892551
-0.0024798629 0.0066066664 0.0088976771 6958344
-0.0023108912 0.0077671539 0.0091694836 7024138
-0.0022181426 0.0091685923 0.008438997 7090697
-0.0020489052 0.010330891 0.008711325 7090184
-0.0018796679 0.011493225 0.0089835376 7090440
-0.001785862 0.012901997 0.008254787 7155207
-0.0016163592 0.01406614 0.0085275229 7288081
-0.0015217317 0.015480444 0.00779999 7222044
-0.0014265734 0.016898435 0.0070732697 7221781
-0.0012565386 0.018066261 0.0073468159 7155983
-0.001234638 0.019745383 0.00562261 7090446
-0.0010640554 0.020916864 0.0058970838 6959373
-0.0008934876 0.022088379 0.0061714402 6893325
-0.00079620723 0.023521051 0.0054481975 6761998
-0.00055235217 0.02443134 0.006720386 6631433
-0.00038177159 0.025602859 0.0069947443 6631941
-0.00028369226 0.027041025 0.0062728333 6631957
-0.00011286046 0.028214347 0.0065477113 6501157
5.798752e-05 0.029387675 0.0068225912 6368536
0.00022882107 0.030561034 0.0070973546 6433546
0.00039965438 0.031734355 0.0073722336 6499080
0.00049936504 0.033183552 0.0066528725 6368262
0.00074133649 0.034081005 0.00792199 6236426
0.00084158033 0.035533886 0.0072034406 6433294
-0.001907622 0.0015235879 0.0089894924 6764039
-0.0017389329 0.0026822351 0.0092608929 6958337
-0.0015702271 0.0038408814 0.009532297 7218692
-0.0014766997 0.0052346447 0.0088003464 7088135
-0.001307728 0.0063951323 0.0090721529 7024396
-0.0012133718 0.0077943932 0.0083415359 7024658
-0.0011185047 0.0091973366 0.0076117287 7091215
-0.00094900141 0.010361477 0.0078844614 7090445
-0.0007794986 0.011525619 0.0081571974 7090440
-0.00068354607 0.012935935 0.0074290135 7155715
-0.00058707548 0.014349905 0.0067017577 7223062
-0.00041703915 0.0155177 0.0069754175 7157546
-0.00039250113 0.01718881 0.005250026 7157791
-0.00022193347 0.018360324 0.0055243834 6959125
-5.13657e-05 0.019531805 0.0057988563 6824982
0.00011921686 0.020703323 0.0060732146 7022359
0.00021808821 0.022133816 0.0053498405 7154200
0.00038891955 0.023307141 0.0056247204 6892057
0.00055975304 0.024480466 0.0058995984 6629905
0.00073060114 0.025653794 0.0061744782 6696969
0.0008308118 0.02709347 0.005453249 6828582
0.0010722681 0.028000474 0.0067241197 6434883
0.0011730271 0.029443804 0.0060038171 6041130
0.0013441264 0.030618969 0.0062791011 6106385
0.001584783 0.031520449 0.0075487555 6237454
0.0016863393 0.032969307 0.0068296711 6171660
0.0018574551 0.034144476 0.0071049551 6105363
0.0020285544 0.035319641 0.0073802392 6236954
-0.00073733239 0.0013123546 0.0091638081 6632977
-0.00064246135 0.0027021319 0.0084312074 7089410
-0.00047349138 0.0038626194 0.0087030139 7547140
-0.0003778385 0.0052578626 0.0079718605 7283973
-0.00020860112 0.0064201942 0.0082440749 7090451
-3.9363746e-05 0.0075824931 0.0085164029 7090720
5.7346886e-05 0.0089851003 0.0077868705 7156245
0.00015462632 0.010391395 0.0070581525 7156235
0.00032439537 0.011557378 0.0073312917 7156230
0.00042247341 0.012969173 0.0066039064 7156226
0.000592508 0.014137 0.0068774517 7223308
0.00062018831 0.015803754 0.0051518003 7157270
0.00071985525 0.017226573 0.0044269641 7091473
0.00089070183 0.01839993 0.0047017275 6827788
0.0010615353 0.019573253 0.0049766055 6630427
0.0012323688 0.020746578 0.0052514835 7022890
0.0013333731 0.022178583 0.004528794 7481632
0.0015044869 0.023353755 0.004804079 7088407
0.0016755881 0.024528917 0.005079363 6695438
0.0018467017 0.025704093 0.0053546489 6827782
0.0019490517 0.02714524 0.004634216 7024404
0.0021889003 0.028054424 0.0059052161 6369058
0.0022917981 0.029499233 0.0051857107 5713431
0.002531115 0.030404728 0.0064558997 5844236
0.002702229 0.031579897 0.0067311847 5975049
0.002873328 0.032755062 0.0070064696 5975046
0.0030444423 0.033930231 0.0072817528 5975050
0.0031486712 0.035384249 0.0065642768 6106381
0.00043295906 0.0011011567 0.0093380082 6895130
0.00052967144 0.0024905689 0.0086057987 7156740
0.00069864315 0.0036510555 0.0088776052 7418372
0.00079615472 0.0050459942 0.0081466138 7287556
0.00096539228 0.0062082903 0.0084189419 7156761
0.0010637105 0.007608721 0.00768928 7222319
0.0011625527 0.0090128407 0.0069604316 7288092
0.0013323196 0.010178825 0.0072335708 7287817
0.0014319906 0.011588474 0.0065059396 7222277
0.0016020248 0.01275627 0.0067796013 7222785
0.0016328911 0.014418696 0.0050535728 7223554
0.0017341509 0.015839368 0.0043284926 7222275
0.0019049842 0.017012693 0.0046033706 7287299
0.0020070483 0.018438829 0.0038797366 6958596
0.0021781488 0.019614004 0.0041550226 6630689
0.0023492631 0.020789169 0.0044303066 6827326
0.0024523919 0.022222646 0.0037084124 7089705
0.0026237587 0.023399655 0.0039841016 6826261
0.0028625773 0.024314675 0.0052561606 6629900
0.0030336911 0.025489841 0.0055314447 6630148
0.0031378842 0.02693066 0.0048112893 6630402
0.0033758893 0.027840178 0.0060820146 6237441
0.0034806309 0.029284682 0.0053626695 5844484
0.0037181042 0.030190513 0.0066325828 5910279
0.0038892184 0.031365678 0.0069078659 6041860
0.0040603178 0.032540843 0.0071831509 6041089
0.0042314315 0.033715986 0.0074585513 6041089
0.0043375036 0.035169668 0.0067413501 6171649
0.0017719527 0.0020485688 0.0097837243 7223042
0.0018707893 0.0034394879 0.0090521965 7288322
0.0019701761 0.0048340913 0.008321479 7288322
0.0021394137 0.0059963875 0.008593807 7288078
0.0022395586 0.0073964847 0.0078644212 7353627
0.0023402758 0.0088002682 0.0071358499 7484688
0.0025100445 0.0099662552 0.0074089901 7419141
0.002611544 0.01137557 0.0066816355 7353614
0.0026455936 0.013033642 0.0049553472 7289110
0.0028161616 0.014205155 0.0052297045 7223308
0.0028518392 0.015874285 0.0035058516 7353090
0.0030229529 0.017049454 0.0037811366 7548930
0.003194052 0.01822459 0.0040565361 7089666
0.003298495 0.019654077 0.0033339895 6696465
0.0034698602 0.020831082 0.0036096792 6696479
0.0036412396 0.022008099 0.0038853711 6695958
0.0038126064 0.023185074 0.0041611749 6629900
0.0039839861 0.024362087 0.004436865 6629895
0.0041553527 0.0255391 0.004712556 6433538
0.0042616846 0.026981428 0.0039930833 6236929
0.004498099 0.027893085 0.0052640508 6106113
0.0046049641 0.029339105 0.0045453901 5975562
0.0047766101 0.030517954 0.0048214854 6041620
0.0049482426 0.031696774 0.005097697 6107146
0.005183605 0.032601096 0.0063669276 6106881
0.0053549716 0.033778105 0.0066426168 6106369
0.0055263508 0.034955125 0.0069183107 6237185
0.0028739676 0.0020674635 0.008954864 7288833
0.0029749172 0.0034598894 0.0082240179 7353601
0.003076419 0.0048559643 0.0074940962 7287041
0.0032459223 0.0060201073 0.0077668312 7286276
0.0033482171 0.007421745 0.0070380135 7483143
0.003517986 0.008587731 0.0073111528 7680004
0.0036210779 0.0099948365 0.0065837842 7484674
0.0036582982 0.011648586 0.0048571206 7288599
0.0038288655 0.01282007 0.0051315944 7157548
0.0039335764 0.014238227 0.0044066585 7026710
0.0039731991 0.015908496 0.0026838775 6959361
0.004144581 0.017085511 0.002959569 6957825
0.0043159463 0.018262517 0.0032352586 6695169
0.0044873273 0.0194395 0.0035110647 6432513
0.0045941742 0.02087234 0.0027896068 6432257
0.0047658198 0.022051163 0.003065818 6432002
0.0049374518 0.02323002 0.0033419156 6432004
0.0051090973 0.02440884 0.0036181253 6432258
0.005344185 0.02532452 0.0048896302 6301441
0.0054523773 0.026766516 0.0041704332 6170625
0.0056240223 0.027945373 0.0044465302 6039297
0.0056703216 0.029661551 0.0027344692 5908241
0.0059673027 0.030303039 0.0049988353 5909794
0.0061389315 0.03148187 0.0052750478 5976593
0.0063105794 0.032660719 0.005551144 5975553
0.0064822254 0.033839539 0.0058273547 6040833
0.0067151827 0.034740541 0.007095383 6171649
0.0068255025 0.036197215 0.0063796625 6367746
0.0040461328 0.0018558949 0.0091294553 7420417
0.0041489387 0.0032479875 0.0083988849 7483649
0.0042522559 0.0046437606 0.0076691243 7351809
0.0044217589 0.0058079027 0.0079418588 7286022
0.0045259278 0.0072091725 0.0072134319 7549196
0.0046306271 0.008614135 0.0064858175 7877127
0.0046710176 0.010263528 0.004758894 7550466
0.004777025 0.011677669 0.0040334244 7222800
0.0049478584 0.012850996 0.0043083034 7026463
0.0050547011 0.014270629 0.0035841637 6830866
0.005098308 0.015942078 0.0018623425 6565638
0.0052699405 0.017120898 0.0021385527 6366982
0.0054415856 0.018299751 0.0024146494 6298119
0.0056132181 0.019478571 0.0026908596 6232836
0.005784865 0.020657428 0.0029669567 6167553
0.0058316863 0.02235093 0.0012502358 6169091
0.0061281431 0.023015104 0.0035192645 6234630
0.0062997905 0.024193924 0.0037954743 6299908
0.0064714206 0.025372777 0.0040715705 6168835
0.0066430666 0.026551604 0.004347783 6105090
0.0068147136 0.027730457 0.0046238792 5973505
0.0068647279 0.029446006 0.0029122583 5908234
0.0071579921 0.03008813 0.0051761861 5843476
0.0073296237 0.031266987 0.0054522832 5843979
0.0075012692 0.032445803 0.005728493 5910017
0.0076729152 0.033624656 0.0060045891 5975297
0.0078445477 0.03480348 0.0062808008 6171905
0.0080161933 0.035982333 0.006556897 6367758
0.0052182656 0.0016443282 0.0093040448 7289601
0.0052586496 0.0032673776 0.0075715329 7351809
0.0053640977 0.0046646325 0.0068425699 7155201
0.0055338689 0.0058306158 0.0071157091 6958089
0.0055131395 0.0077069905 0.0043861954 7221778
0.0056837071 0.0088784713 0.0046606683 7549962
0.0058542877 0.010049954 0.0049351412 7288578
0.0059621562 0.011463758 0.0042099464 7027466
0.0061329897 0.012637082 0.0044848234 6765586
0.0062416899 0.014056387 0.0037609623 6569487
0.0062889983 0.015727166 0.0020396928 6434828
0.0064606308 0.016906019 0.002315789 6365964
0.0066322782 0.018084841 0.0025919997 6233869
0.0068039089 0.019263696 0.0028680959 6167559
0.0068539004 0.020952839 0.0011511147 6036993
0.0070260796 0.02213534 0.0014281361 5906437
0.0073188324 0.022800196 0.0036966149 6038537
0.0074904803 0.023979045 0.0039727106 6236423
0.0077218791 0.024895396 0.0052436641 6105093
0.0078337574 0.026336722 0.0045250184 5974019
0.0080054048 0.027515542 0.0048012282 5908225
0.0081770346 0.028694399 0.0050773262 5842692
0.008348682 0.029873222 0.0053535369 5778183
0.0085203126 0.031052072 0.0056296322 5778436
0.0086919591 0.032230895 0.0059058429 5712898
0.0089214966 0.033134408 0.0071737259 5581825
0.0090928767 0.034311384 0.0074495305 5843713
0.0092642419 0.035488397 0.0077252216 6105625
0.0064345011 0.003055146 0.0077466755 7222790
0.0065418081 0.0044520926 0.0070178728 6959105
0.0066496781 0.0058526974 0.0062899995 6697478
0.00669641 0.0074934121 0.0045624408 6960138
0.0068669776 0.0086648948 0.0048369137 7222790
0.0069764364 0.010076517 0.0041115875 7026689
0.0070864656 0.011491838 0.0033870763 6831625
0.0072575649 0.012667006 0.0036623604 6571281
0.0073683606 0.014087784 0.0029392955 6375436
0.0073596095 0.016007222 0.00022092415 6376198
0.0075317877 0.01718973 0.00049794698 6375943
0.007703952 0.018372238 0.00077496935 6244615
0.0078761298 0.019554745 0.0010519922 6179076
0.008048309 0.020737249 0.0013290145 5916929
0.0082204882 0.021919757 0.0016060374 5717507
0.0085095372 0.02258528 0.0038739643 5911557
0.0086811855 0.02376413 0.0041500605 6173444
0.0088528171 0.024942953 0.0044262712 6042115
0.0090244636 0.02612181 0.0047023683 5909508
0.0091961101 0.02730066 0.0049784645 5842694
0.0093677416 0.028479483 0.0052546752 5777926
0.009425709 0.030197348 0.0035450836 5778694
0.0098241605 0.030294489 0.0077917422 5778693
0.0099952612 0.031469658 0.0080670267 5513732
0.010166373 0.032644827 0.0083423108 5254402
0.010337474 0.033819996 0.0086175948 5515009
0.010453073 0.035273816 0.0079022944 5842197
0.0076103522 0.0028429125 0.0079218186 7355659
0.0075385617 0.0049368404 0.0041898568 7090434
0.0077091292 0.0061083548 0.0044642142 6889986
0.0078796968 0.0072798356 0.0047386871 6961155
0.0080502639 0.0084513165 0.005013159 7093506
0.0081615672 0.0098626418 0.0042879959 6898689
0.0083324146 0.011035969 0.0045628748 6704137
0.0084445383 0.012452759 0.003839158 6508305
0.0086156521 0.013627926 0.004114442 6377993
0.008786751 0.014803095 0.004389727 6312961
0.0087261964 0.016974147 0.00067584822 6313729
0.0088983588 0.018156653 0.00095287059 6182146
0.009070538 0.019339193 0.0012297789 6116097
0.0092427172 0.020521699 0.0015068012 6050305
0.0087274592 0.0028609671 0.0070955711 7486743
0.0087218471 0.0047233012 0.0043659885 7287560
0.0088341963 0.0061287237 0.0036399961 7091977
0.0090050437 0.0073020514 0.0039148754 7027722
0.0091758762 0.0084754061 0.0041896389 6964229
0.0092892963 0.0098881815 0.003465388 6770177
0.009460412 0.01106335 0.0037406725 6574341
0.0096315108 0.012238517 0.0040159565 6509577
0.0098026264 0.013413685 0.0042912415 6443781
0.0099737234 0.014588852 0.0045665256 6313729
0.0098482985 0.0028783586 0.0062698764 7421475
0.0098484922 0.0047414917 0.00354164 7224335
0.010019327 0.0059148474 0.0038164039 7092752
0.010190174 0.007088175 0.0040912828 6898193
0.010361006 0.0082614981 0.0043661608 6769417
0.010476286 0.0096739717 0.0036420715 6639617
0.010647399 0.01084914 0.0039173565 6509825
0.011033623 0.0045276145 0.0037180474 7223560
0.011204455 0.0057009393 0.0039929259 7094024
0.011375304 0.0068742661 0.0042678057 6834185
0.011546137 0.0080475882 0.0045426828 6573829
0.012218753 0.0043137027 0.0038945689 7291905
0.012336949 0.0057199765 0.0031698132 7161089
0.01250805 0.0068951435 0.0034450977 6834689
0.012731267 0.0078336773 0.0047192047 6574849
0.013403881 0.0040997937 0.0040710918 7422995
0.013574714 0.0052731205 0.0043459707 7292428
0.013745563 0.0064464789 0.0046207341 6900741
0.014539827 0.0041163526 0.0032480103 7489061
0.014710926 0.0052915215 0.0035232948 7620631
0.014882026 0.0064666895 0.0037985793 7097353
0.016010841 0.0025214609 0.0094203223 7555347
0.015897915 0.0050772754 0.0037000924 8013580
0.016069014 0.0062524462 0.0039753779 7359749
0.018575441 0.0030298941 0.011041481 7620869
0.019749435 0.0028180256 0.011216234 7425034
0.020923441 0.0026061218 0.011391101 7293721
